ply
format ascii 1.0
comment Generated by royaleviewer 3.23.086
element vertex 1254
property float x
property float y
property float z
property uchar red
property uchar green
property uchar blue
element face 0
property list uchar int vertex_index
end_header
0.0991828 0.0814825 0.32573 4 4 4
0.103089 0.0833747 0.332802 3 3 3
0.105324 0.0838787 0.334302 4 4 4
0.106502 0.0835375 0.332416 4 4 4
0.10746 0.0830373 0.329885 3 3 3
0.109671 0.0835053 0.331185 3 3 3
0.111929 0.0839944 0.332545 2 2 2
0.113756 0.0841519 0.332572 2 2 2
0.118254 0.0862531 0.340249 3 3 3
0.124619 0.0896385 0.352937 3 3 3
0.129606 0.0919539 0.361353 3 3 3
0.133693 0.0935772 0.367006 7 7 7
0.136396 0.0942019 0.368713 64 64 64
0.138606 0.0944742 0.369021 128 128 128
0.140421 0.0944733 0.368251 133 133 133
0.143349 0.0952113 0.370348 131 131 131
0.145937 0.0957087 0.371495 117 117 117
0.148291 0.0960415 0.371993 115 115 115
0.150348 0.0961764 0.371723 119 119 119
0.152411 0.0963116 0.371456 112 112 112
0.154371 0.0963794 0.370937 99 99 99
0.15702 0.0968705 0.372055 97 97 97
0.159089 0.0969969 0.371784 102 102 102
0.160904 0.0969667 0.370933 107 107 107
0.163253 0.0972555 0.371328 105 105 105
0.165726 0.0976114 0.372004 104 104 104
0.167692 0.0976635 0.371557 103 103 103
0.169258 0.0974841 0.370269 97 97 97
0.171135 0.0974854 0.369714 98 98 98
0.173497 0.0977606 0.370245 73 73 73
0.176365 0.0983117 0.37187 35 35 35
0.177827 0.0980759 0.370573 24 24 24
0.177657 0.096954 0.365993 21 21 21
0.178018 0.0961424 0.362652 19 19 19
0.17879 0.0955673 0.360269 18 18 18
0.178937 0.094673 0.35675 17 17 17
0.17987 0.0942084 0.354916 15 15 15
0.180956 0.0938323 0.353479 13 13 13
0 0 0 0 0 0
0.161946 0.0823335 0.310296 13 13 13
0.156996 0.0790446 0.298044 13 13 13
0.158722 0.0791476 0.298628 12 12 12
0.161739 0.0798862 0.301663 11 11 11
0.163556 0.0800235 0.302481 8 8 8
0 0 0 0 0 0
-0.209902 0.0962034 0.362972 28 28 28
-0.209387 0.0968042 0.364408 27 27 27
-0.20858 0.0972792 0.365401 27 27 27
-0.207965 0.0978532 0.3668 30 30 30
-0.207437 0.0984789 0.368427 34 34 34
-0.204418 0.0979221 0.365676 38 38 38
-0.202615 0.0979437 0.365137 37 37 37
-0.201448 0.0982756 0.365803 37 37 37
-0.19999 0.09847 0.366007 36 36 36
-0.197904 0.0983565 0.365119 43 43 43
-0.196134 0.0983994 0.36487 47 47 47
-0.195807 0.0991737 0.367388 48 48 48
-0.194096 0.099255 0.367395 42 42 42
-0.1926 0.0994493 0.367883 41 41 41
-0.190097 0.099122 0.366504 52 52 52
-0.187619 0.0988017 0.365217 52 52 52
-0.1859 0.0988788 0.365464 53 53 53
-0.183673 0.0986843 0.364772 55 55 55
-0.182564 0.0990926 0.366374 63 63 63
-0.180134 0.0987846 0.365392 55 55 55
-0.178481 0.0989014 0.366046 59 59 59
-0.176736 0.0989689 0.36658 58 58 58
-0.175182 0.099146 0.367581 58 58 58
-0.172803 0.0988543 0.366901 60 60 60
-0.170996 0.0988877 0.367482 74 74 74
-0.16859 0.0985717 0.366815 90 90 90
-0.166675 0.0985384 0.367246 80 80 80
-0.164546 0.0983771 0.367242 89 89 89
-0.161852 0.09787 0.365983 90 90 90
-0.159319 0.0974497 0.365075 93 93 93
-0.15726 0.0973125 0.365255 98 98 98
-0.155439 0.0973217 0.366008 100 100 100
-0.152807 0.0968171 0.364846 117 117 117
-0.150863 0.0967414 0.365312 114 114 114
-0.148733 0.0965435 0.365327 113 113 113
-0.146419 0.0962194 0.364867 116 116 116
-0.144482 0.0961382 0.365331 128 128 128
-0.142918 0.0963063 0.366743 109 109 109
-0.140927 0.0961871 0.36706 117 117 117
-0.138862 0.0960137 0.367164 127 127 127
-0.136742 0.0957972 0.367092 112 112 112
-0.13451 0.0954951 0.366679 126 126 126
-0.131668 0.0947458 0.36453 128 128 128
-0.129951 0.0947969 0.365442 112 112 112
-0.127879 0.0945872 0.365334 120 120 120
-0.125709 0.0942976 0.364899 115 115 115
-0.123875 0.0942551 0.365401 112 112 112
-0.122461 0.0945365 0.367144 113 113 113
-0.119758 0.0938157 0.364975 115 115 115
-0.117747 0.0936233 0.364838 109 109 109
-0.116062 0.0936883 0.365685 110 110 110
-0.114359 0.0937411 0.366466 119 119 119
-0.112347 0.0935382 0.366229 126 126 126
-0.110161 0.0931809 0.365366 121 121 121
-0.108385 0.0931658 0.365824 116 116 116
-0.106708 0.0932351 0.366596 120 120 120
-0.104293 0.0926518 0.364781 118 118 118
-0.102469 0.0925836 0.364973 120 120 120
-0.101103 0.0929328 0.366795 112 112 112
-0.0984415 0.0920827 0.363863 114 114 114
-0.0971555 0.0925119 0.365967 105 105 105
-0.0952393 0.0923458 0.365702 115 115 115
-0.0935497 0.0923972 0.366281 110 110 110
-0.0915931 0.092182 0.365786 104 104 104
-0.0893636 0.0916785 0.36413 101 101 101
-0.0876276 0.0916713 0.364428 94 94 94
-0.0860871 0.0918725 0.36554 109 109 109
-0.084229 0.091736 0.365295 104 104 104
-0.0824375 0.0916678 0.365308 86 86 86
-0.080262 0.0911607 0.363557 86 86 86
-0.0771424 0.0895356 0.357327 71 71 71
-0.0742202 0.0880719 0.351721 75 75 75
-0.0720984 0.0875126 0.349711 67 67 67
-0.0694367 0.0862567 0.3449 73 73 73
-0.0665805 0.0846929 0.338842 73 73 73
-0.0643587 0.0838791 0.335768 78 78 78
-0.06127 0.0818661 0.327878 86 86 86
-0.058899 0.0807325 0.323496 87 87 87
-0.0554616 0.0780384 0.312844 88 88 88
-0.0503475 0.0727739 0.291866 128 128 128
-0.0464253 0.0689853 0.276785 190 190 190
-0.0449752 0.0687575 0.275978 170 170 170
-0.0439547 0.0691926 0.277825 133 133 133
-0.0419045 0.0679836 0.273063 134 134 134
-0.0403634 0.0675504 0.27141 144 144 144
-0.0386401 0.0667741 0.268372 144 144 144
-0.0371402 0.0663446 0.266721 162 162 162
-0.0357933 0.0661678 0.26608 169 169 169
-0.0340624 0.0652429 0.262425 178 178 178
-0.0328634 0.0653057 0.262738 164 164 164
-0.0312166 0.0644487 0.259346 187 187 187
-0.029904 0.0642403 0.258559 178 178 178
-0.0286284 0.0640972 0.258031 181 181 181
-0.0274073 0.0640686 0.25796 180 180 180
-0.0260239 0.0636407 0.256278 175 175 175
-0.0247557 0.0634668 0.255616 178 178 178
-0.0233747 0.0629711 0.253654 179 179 179
-0.021829 0.061955 0.249592 191 191 191
-0.0205607 0.0616558 0.248416 199 199 199
-0.0192496 0.0611847 0.246544 219 219 219
-0.0180517 0.0610365 0.24597 203 203 203
-0.0168699 0.0609259 0.245546 204 204 204
-0.0156817 0.0607747 0.244957 216 216 216
-0.0144749 0.0605216 0.243955 209 209 209
-0.0136848 0.0621164 0.2504 96 96 96
0 0 0 0 0 0
-0.012676 0.0694244 0.27989 82 82 82
-0.0113932 0.0695872 0.28056 140 140 140
-0.0101644 0.0701648 0.2829 150 150 150
-0.00887923 0.0704682 0.284133 144 144 144
-0.00755422 0.0705064 0.284296 144 144 144
-0.00624036 0.0706873 0.285032 154 154 154
-0.0049137 0.070782 0.28542 156 156 156
-0.00357254 0.0706607 0.284935 163 163 163
-0.00224163 0.0707183 0.28517 164 164 164
-0.000910569 0.070933 0.286037 161 161 161
0.000429466 0.0712923 0.287486 157 157 157
0.00177477 0.0713186 0.287591 198 198 198
0.00311939 0.0713067 0.287541 214 214 214
0.00446842 0.0713724 0.287802 204 204 204
0.00585774 0.0719021 0.289933 198 198 198
0.00723595 0.0721221 0.290813 188 188 188
0.0085985 0.0721409 0.290881 193 193 193
0.00994183 0.0720155 0.290366 189 189 189
0.0113191 0.0721364 0.290842 187 187 187
0.0128013 0.0728285 0.293619 184 184 184
0.0141411 0.0726547 0.292904 182 182 182
0.0155058 0.0726281 0.29278 190 190 190
0.0168917 0.0726974 0.293041 180 180 180
0.0182888 0.0728006 0.293436 165 165 165
0.0198029 0.0733227 0.295518 142 142 142
0.021236 0.0734963 0.296192 123 123 123
0.0226736 0.0736632 0.296837 109 109 109
0.0240575 0.0736464 0.296739 121 121 121
0.0254332 0.0736077 0.296549 147 147 147
0.027025 0.0741662 0.298763 135 135 135
0.0284609 0.0742628 0.299112 114 114 114
0.0297455 0.0739743 0.297908 133 133 133
0.0315465 0.0749381 0.301742 140 140 140
0.0324727 0.0738304 0.297232 141 141 141
0.0342734 0.0747203 0.30076 118 118 118
0.0333258 0.0697848 0.28084 109 109 109
0.0340099 0.0685115 0.275658 106 106 106
0.0354181 0.0687367 0.276502 104 104 104
0.0374012 0.0700222 0.281605 93 93 93
0.0388465 0.0702475 0.282439 76 76 76
0.0411486 0.0719563 0.28923 54 54 54
0.0426301 0.0721668 0.28999 49 49 49
0.0441272 0.0723898 0.290796 47 47 47
0.0458885 0.0730198 0.293229 46 46 46
0.047965 0.0741002 0.297461 47 47 47
0.0495584 0.0743941 0.298529 52 52 52
0.052129 0.0760983 0.305245 49 49 49
0.0537702 0.0763909 0.306288 72 72 72
0.0551692 0.076333 0.305919 52 52 52
0.0596608 0.0804483 0.322258 15 15 15
0.0621034 0.0816649 0.326966 16 16 16
0.0636097 0.0816213 0.326618 17 17 17
0.0648721 0.0812742 0.325046 21 21 21
0.0664922 0.0813809 0.32528 22 22 22
0.0674279 0.0806641 0.322213 21 21 21
0.069111 0.0808532 0.322756 24 24 24
0.0710727 0.0813531 0.324527 20 20 20
0.0732784 0.0821053 0.327289 19 19 19
0.0749217 0.0822092 0.327453 14 14 14
0.0762831 0.0820059 0.326381 15 15 15
0.0781264 0.0823184 0.327349 12 12 12
0.0797447 0.0823862 0.32733 12 12 12
0.0815653 0.0826564 0.328101 9 9 9
0.0830439 0.0825766 0.327468 9 9 9
0.0844939 0.0824717 0.326722 8 8 8
0.085639 0.0820783 0.32482 7 7 7
0.0874474 0.0823234 0.325432 6 6 6
0.0897067 0.0829769 0.327639 6 6 6
0.0903426 0.0821323 0.323917 4 4 4
0.0928217 0.0829635 0.326788 5 5 5
0.0951408 0.0836265 0.328973 5 5 5
0.0968376 0.0837298 0.328937 4 4 4
0.0993182 0.0844967 0.331487 4 4 4
0.104221 0.0872672 0.34186 4 4 4
0.103378 0.0852157 0.333323 4 4 4
0.105225 0.0854102 0.333565 4 4 4
0.107079 0.0856045 0.333787 3 3 3
0.109679 0.0863806 0.336256 3 3 3
0.110837 0.0860155 0.334262 3 3 3
0.112425 0.0859892 0.333573 3 3 3
0.113414 0.0855117 0.331121 2 2 2
0.11634 0.0864879 0.334279 3 3 3
0.12408 0.0909664 0.35092 2 2 2
0.131037 0.0947568 0.364832 4 4 4
0.134708 0.0961004 0.369271 9 9 9
0.136724 0.0962439 0.369076 69 69 69
0.138407 0.096152 0.367968 125 125 125
0.140866 0.0965944 0.368893 125 125 125
0.143017 0.0968174 0.36897 124 124 124
0.145993 0.0975861 0.371116 120 120 120
0.148312 0.0979017 0.37153 115 115 115
0.150564 0.0981659 0.371748 112 112 112
0.152739 0.0983743 0.371757 109 109 109
0.154944 0.0985965 0.371827 94 94 94
0.156845 0.0986226 0.371169 99 99 99
0.158855 0.0987159 0.370783 98 98 98
0.161111 0.0989581 0.370978 102 102 102
0.164027 0.0995951 0.372675 105 105 105
0.166287 0.0998241 0.372873 97 97 97
0.168018 0.0997344 0.371917 95 95 95
0.169196 0.0993212 0.369801 94 94 94
0.171924 0.099818 0.371119 90 90 90
0.174255 0.100075 0.371592 79 79 79
0.176794 0.100445 0.372539 49 49 49
0.178372 0.100267 0.371507 25 25 25
0.178201 0.0991202 0.366951 21 21 21
0.178388 0.0981944 0.363281 19 19 19
0.179781 0.0979439 0.362176 19 19 19
0.180643 0.0974128 0.360097 17 17 17
0.179471 0.0958065 0.354111 15 15 15
0.18 0.095131 0.351628 14 14 14
0.183637 0.0960953 0.35527 11 11 11
0 0 0 0 0 0
0.155453 0.0797722 0.295206 11 11 11
0.15883 0.0807238 0.298948 11 11 11
0.164085 0.0826029 0.306183 10 10 10
0.165617 0.0825899 0.306461 9 9 9
0 0 0 0 0 0
-0.208735 0.0974731 0.361347 26 26 26
-0.209716 0.0987848 0.365363 24 24 24
-0.208677 0.09916 0.365939 27 27 27
-0.208349 0.099883 0.367832 29 29 29
-0.207658 0.100443 0.369157 31 31 31
-0.206336 0.100706 0.369428 33 33 33
-0.203116 0.100038 0.366336 39 39 39
-0.201572 0.100191 0.366302 39 39 39
-0.200203 0.100434 0.366648 39 39 39
-0.198583 0.100555 0.366598 42 42 42
-0.197004 0.1007 0.366687 45 45 45
-0.19544 0.100855 0.366871 44 44 44
-0.194588 0.101383 0.36847 39 39 39
-0.192964 0.101516 0.36869 44 44 44
-0.189779 0.100823 0.365971 50 50 50
-0.187671 0.100693 0.365365 53 53 53
-0.185516 0.100535 0.36472 56 56 56
-0.184379 0.100932 0.36615 56 56 56
-0.182215 0.100769 0.365615 52 52 52
-0.180833 0.101039 0.366716 49 49 49
-0.179048 0.101087 0.367077 55 55 55
-0.177437 0.101235 0.367864 56 56 56
-0.175314 0.101092 0.367652 58 58 58
-0.173286 0.101 0.367688 64 64 64
-0.171243 0.100898 0.36774 73 73 73
-0.168761 0.100533 0.366883 73 73 73
-0.166625 0.100367 0.366802 81 81 81
-0.164696 0.100323 0.367211 89 89 89
-0.162242 0.0999559 0.366473 89 89 89
-0.159947 0.0996787 0.366099 90 90 90
-0.156941 0.0989474 0.364082 94 94 94
-0.154885 0.0988043 0.364252 100 100 100
-0.153036 0.0987913 0.364923 111 111 111
-0.151051 0.0986888 0.36528 110 110 110
-0.149028 0.0985593 0.365551 119 119 119
-0.146554 0.0981244 0.364695 121 121 121
-0.144575 0.0980146 0.36505 118 118 118
-0.142832 0.0980634 0.365998 104 104 104
-0.140926 0.0980006 0.366529 117 117 117
-0.138864 0.097826 0.366638 111 111 111
-0.136786 0.0976349 0.366676 121 121 121
-0.134753 0.0974721 0.366811 133 133 133
-0.13245 0.0971062 0.366167 123 123 123
-0.130093 0.0966908 0.365319 115 115 115
-0.12799 0.0964551 0.365133 115 115 115
-0.125787 0.0961359 0.364612 111 111 111
-0.123787 0.0959652 0.364636 113 113 113
-0.122006 0.0959611 0.365276 118 118 118
-0.119617 0.0954721 0.36405 120 120 120
-0.117605 0.0952741 0.363912 113 113 113
-0.116052 0.0954471 0.365174 112 112 112
-0.114265 0.0954304 0.365693 120 120 120
-0.112448 0.0953879 0.366094 126 126 126
-0.111489 0.0960833 0.369314 114 114 114
-0.108774 0.0952636 0.366691 110 110 110
-0.106588 0.0948869 0.365748 116 116 116
-0.104561 0.094642 0.365293 117 117 117
-0.102896 0.0947226 0.366075 120 120 120
-0.101615 0.0951653 0.368242 117 117 117
-0.0994232 0.094755 0.367091 109 109 109
-0.0973933 0.0944875 0.366473 108 108 108
-0.0954719 0.0943173 0.366214 109 109 109
-0.0936704 0.0942615 0.366382 106 106 106
-0.0916772 0.0940068 0.365761 103 103 103
-0.0897359 0.0937967 0.365295 97 97 97
-0.0880959 0.0938995 0.366032 101 101 101
-0.0864579 0.0940085 0.36678 105 105 105
-0.0835018 0.0926593 0.36182 106 106 106
-0.0819061 0.0927948 0.362639 88 88 88
-0.0801695 0.092773 0.362832 85 85 85
-0.0766648 0.0906594 0.354824 75 75 75
-0.0745926 0.0901832 0.353205 72 72 72
-0.0721884 0.0892746 0.349877 69 69 69
-0.0687723 0.0870426 0.341343 72 72 72
-0.0662939 0.0859189 0.337137 67 67 67
-0.0643305 0.0854237 0.335383 79 79 79
-0.0618948 0.0842607 0.330994 78 78 78
-0.0585768 0.0818053 0.321512 89 89 89
-0.0551244 0.079027 0.310741 92 92 92
-0.0478101 0.0704097 0.276983 161 161 161
-0.0463117 0.0701145 0.275939 205 205 205
-0.045152 0.0703298 0.276899 154 154 154
-0.0436869 0.0700682 0.275974 132 132 132
-0.0416669 0.0688732 0.271365 133 133 133
-0.0401883 0.068526 0.270088 149 149 149
-0.0389263 0.0685376 0.270219 152 152 152
-0.037069 0.0674664 0.266075 164 164 164
-0.0354018 0.0666785 0.263041 169 169 169
-0.0341477 0.06664 0.262958 170 170 170
-0.0329112 0.0666342 0.262999 175 175 175
-0.0311798 0.065587 0.258925 197 197 197
-0.030062 0.0657978 0.259813 173 173 173
-0.028789 0.0656725 0.25937 170 170 170
-0.0275256 0.0655589 0.258969 175 175 175
-0.0259541 0.0646672 0.255491 177 177 177
-0.0246176 0.064303 0.254092 179 179 179
-0.0231065 0.0634227 0.250651 194 194 194
-0.0217483 0.0628903 0.248581 200 200 200
-0.0205644 0.0628301 0.248374 190 190 190
-0.0192643 0.0623864 0.246648 212 212 212
-0.0179936 0.0619877 0.245098 209 209 209
-0.0167871 0.0617703 0.244262 209 209 209
-0.015623 0.0616891 0.243963 220 220 220
-0.0145329 0.0619101 0.244857 158 158 158
0 0 0 0 0 0
-0.0147656 0.0746801 0.295403 30 30 30
-0.0127499 0.0711463 0.281441 111 111 111
-0.0114193 0.0710622 0.281123 136 136 136
-0.0102226 0.0718979 0.284442 134 134 134
-0.00890219 0.071983 0.28479 126 126 126
-0.00757646 0.0720478 0.285055 134 134 134
-0.00625208 0.0721558 0.285491 138 138 138
-0.00492711 0.0723138 0.286122 141 141 141
-0.00359203 0.0723861 0.286413 151 151 151
-0.00224595 0.0721907 0.285643 163 163 163
-0.000912679 0.0724383 0.286625 154 154 154
0.000430204 0.0727617 0.287905 169 169 169
0.00178813 0.0732107 0.28968 185 185 185
0.00312238 0.0727213 0.287741 204 204 204
0.00448802 0.0730375 0.288988 201 201 201
0.00584273 0.0730706 0.289113 202 202 202
0.00721822 0.0733023 0.290022 192 192 192
0.00859541 0.0734751 0.290697 189 189 189
0.009961 0.0735152 0.290845 178 178 178
0.0113346 0.0735976 0.291158 177 177 177
0.0127794 0.0740749 0.293032 185 185 185
0.0141643 0.0741464 0.293298 191 191 191
0.0155141 0.0740375 0.292849 188 188 188
0.0170075 0.0745762 0.294959 185 185 185
0.0183896 0.0745825 0.294961 179 179 179
0.0198397 0.0748444 0.295972 153 153 153
0.0212632 0.0749786 0.296474 158 158 158
0.0226181 0.0748687 0.29601 150 150 150
0.0239884 0.07482 0.295784 144 144 144
0.025463 0.075084 0.296791 133 133 133
0.0271979 0.0760486 0.300564 120 120 120
0.0284462 0.0756245 0.298845 106 106 106
0.029979 0.0759611 0.300129 103 103 103
0.0314313 0.0760727 0.300519 110 110 110
0.0328436 0.0760822 0.300503 134 134 134
0.0338707 0.075235 0.297099 115 115 115
0.03316 0.0707474 0.27932 109 109 109
0.0341394 0.0700695 0.276582 106 106 106
0.0355586 0.070311 0.277469 93 93 93
0.037271 0.0710946 0.280489 82 82 82
0.0393225 0.0724495 0.285757 60 60 60
0.0413646 0.0736982 0.290597 49 49 49
0.0427601 0.0737521 0.29072 47 47 47
0.0443783 0.0741749 0.29229 47 47 47
0.0459774 0.0745411 0.29363 48 48 48
0.0477702 0.0751912 0.29608 50 50 50
0.0501023 0.0766291 0.301623 49 49 49
0.0522753 0.0777513 0.305912 55 55 55
0.053759 0.0778154 0.306028 79 79 79
0.0560861 0.0790652 0.310797 28 28 28
0.0601163 0.0825914 0.324497 16 16 16
0.0616677 0.0826214 0.324445 16 16 16
0.0633064 0.0827642 0.324826 16 16 16
0.0653491 0.083416 0.327193 20 20 20
0.0664209 0.082827 0.324683 21 21 21
0.0674061 0.0821589 0.321855 20 20 20
0.0687277 0.0819213 0.320706 18 18 18
0.0708186 0.0825912 0.323097 20 20 20
0.073149 0.0835061 0.326431 17 17 17
0.0750337 0.0838849 0.327653 14 14 14
0.0764847 0.0837733 0.326947 13 13 13
0.0778572 0.0835819 0.325918 14 14 14
0.079251 0.0834204 0.324994 11 11 11
0.0807021 0.0833243 0.324311 9 9 9
0.0823907 0.0834722 0.324566 9 9 9
0.0839321 0.0834684 0.324215 11 11 11
0.0860044 0.0839832 0.325863 6 6 6
0.0881033 0.0845052 0.327519 6 6 6
0.0884028 0.0833131 0.32252 6 6 6
0.0890333 0.0824686 0.318861 6 6 6
0.091946 0.0837308 0.323331 4 4 4
0.0954772 0.0855051 0.329747 4 4 4
0.0968854 0.0853512 0.328702 4 4 4
0.0989205 0.0857456 0.329752 3 3 3
0.10219 0.0871808 0.334778 3 3 3
0.103583 0.086995 0.333556 3 3 3
0.105367 0.0871391 0.333582 3 3 3
0.10806 0.0880185 0.336401 3 3 3
0.110729 0.088853 0.33902 3 3 3
0.114304 0.0903786 0.344245 3 3 3
0.115339 0.0898814 0.341743 3 3 3
0.115124 0.0884384 0.335643 2 2 2
0.11745 0.0889596 0.33699 3 3 3
0.12389 0.0925403 0.349883 3 3 3
0.1304 0.0960748 0.362537 3 3 3
0.136113 0.0989341 0.372583 9 9 9
0.137091 0.098322 0.369529 71 71 71
0.138874 0.0982958 0.368674 119 119 119
0.140984 0.0984988 0.36867 123 123 123
0.14339 0.0989005 0.369401 122 122 122
0.146181 0.0995543 0.371065 117 117 117
0.14862 0.099955 0.371779 108 108 108
0.150773 0.100156 0.371752 104 104 104
0.152863 0.100311 0.37156 99 99 99
0.155203 0.100624 0.371962 97 97 97
0.156985 0.100573 0.371032 100 100 100
0.159088 0.100725 0.370878 97 97 97
0.161136 0.10084 0.370608 103 103 103
0.163357 0.101059 0.370748 101 101 101
0.16642 0.101788 0.372791 95 95 95
0.167875 0.101529 0.37125 87 87 87
0.170208 0.1018 0.371694 83 83 83
0.172567 0.102081 0.372218 79 79 79
0.174141 0.101896 0.371097 75 75 75
0.175711 0.101713 0.370039 62 62 62
0.178849 0.102432 0.372319 33 33 33
0.179606 0.101786 0.369699 22 22 22
0.179413 0.100621 0.365261 19 19 19
0.180804 0.10036 0.364167 19 19 19
0.181808 0.09989 0.362384 16 16 16
0.181712 0.0988323 0.358532 15 15 15
0.181403 0.0976806 0.354401 14 14 14
0.181173 0.0965938 0.350567 13 13 13
0.183462 0.0968582 0.351697 10 10 10
0.161462 0.0844183 0.306727 11 11 11
0.162133 0.0839566 0.305299 9 9 9
0.162947 0.0835769 0.304217 9 9 9
0.164818 0.0837418 0.305164 11 11 11
0 0 0 0 0 0
-0.213291 0.101444 0.369648 25 25 25
-0.209647 0.100581 0.36564 25 25 25
-0.208819 0.101065 0.366573 26 26 26
-0.208222 0.10167 0.367977 28 28 28
-0.207377 0.102164 0.36901 31 31 31
-0.205328 0.102068 0.367956 34 34 34
-0.203412 0.102038 0.367182 35 35 35
-0.201679 0.102099 0.366787 36 36 36
-0.200281 0.102333 0.36706 38 38 38
-0.198662 0.102458 0.366989 39 39 39
-0.196418 0.102259 0.365814 44 44 44
-0.195151 0.10257 0.36652 42 42 42
-0.194197 0.103053 0.367893 42 42 42
-0.191562 0.102645 0.366143 43 43 43
-0.189827 0.102715 0.366163 47 47 47
-0.187515 0.102472 0.365128 50 50 50
-0.185459 0.102365 0.36464 57 57 57
-0.184373 0.102797 0.366135 52 52 52
-0.183224 0.103202 0.367599 49 49 49
-0.181548 0.103316 0.36809 47 47 47
-0.179184 0.103036 0.367242 58 58 58
-0.178114 0.103503 0.369116 57 57 57
-0.176068 0.103406 0.369047 54 54 54
-0.173305 0.102882 0.367506 56 56 56
-0.17109 0.102675 0.367155 67 67 67
-0.168973 0.102522 0.367053 71 71 71
-0.16674 0.102296 0.366732 77 77 77
-0.164753 0.102217 0.366986 78 78 78
-0.163047 0.102311 0.367907 84 84 84
-0.159435 0.101199 0.364522 93 93 93
-0.157079 0.100868 0.363974 93 93 93
-0.155133 0.100794 0.364383 104 104 104
-0.153317 0.100805 0.365122 108 108 108
-0.15109 0.100542 0.364889 107 107 107
-0.148704 0.100166 0.364258 118 118 118
-0.146911 0.100184 0.365072 111 111 111
-0.144997 0.10012 0.365594 103 103 103
-0.142732 0.0998089 0.365213 101 101 101
-0.140995 0.0998635 0.366173 112 112 112
-0.138823 0.0996071 0.365989 110 110 110
-0.13685 0.099489 0.366308 120 120 120
-0.134898 0.0993833 0.366664 128 128 128
-0.132716 0.0991028 0.366364 127 127 127
-0.130176 0.0985432 0.365015 117 117 117
-0.128066 0.0982986 0.364816 115 115 115
-0.125975 0.098062 0.36463 109 109 109
-0.123982 0.0978951 0.364686 104 104 104
-0.121923 0.097671 0.364512 110 110 110
-0.12066 0.0980878 0.366714 105 105 105
-0.119014 0.0982006 0.367767 112 112 112
-0.116227 0.0973611 0.365231 122 122 122
-0.114318 0.097242 0.365375 119 119 119
-0.112493 0.0971927 0.365762 120 120 120
-0.110763 0.0972246 0.366437 112 112 112
-0.108984 0.0972141 0.366935 108 108 108
-0.10714 0.097144 0.367189 113 113 113
-0.104814 0.096628 0.365736 117 117 117
-0.103146 0.0967102 0.366529 115 115 115
-0.101396 0.0967175 0.36702 115 115 115
-0.0994702 0.0965547 0.366848 112 112 112
-0.0973397 0.0961836 0.365865 113 113 113
-0.0956539 0.0962464 0.366515 110 110 110
-0.0938559 0.0961965 0.36672 102 102 102
-0.0919532 0.0960354 0.366483 105 105 105
-0.0900526 0.0958702 0.366215 97 97 97
-0.0883137 0.0958741 0.366576 102 102 102
-0.0865291 0.0958275 0.36673 107 107 107
-0.0842171 0.095183 0.364579 101 101 101
-0.0820233 0.0946478 0.362828 99 99 99
-0.0804357 0.0948042 0.363714 90 90 90
-0.0766445 0.0923134 0.354425 74 74 74
-0.0741406 0.0912961 0.35077 74 74 74
-0.0709024 0.0893074 0.343363 80 80 80
-0.0678504 0.0874656 0.3365 81 81 81
-0.0662407 0.0874392 0.336606 71 71 71
-0.0642281 0.0868665 0.334598 68 68 68
-0.0608456 0.0843658 0.325146 78 78 78
-0.0582077 0.0827946 0.319259 86 86 86
-0.0541062 0.0790032 0.304791 101 101 101
-0.0477112 0.0715647 0.276225 169 169 169
-0.0461805 0.07121 0.274979 199 199 199
-0.0451504 0.0716292 0.276714 141 141 141
-0.043974 0.0718341 0.277617 123 123 123
-0.0417046 0.0702116 0.271448 135 135 135
-0.0401578 0.0697415 0.269727 135 135 135
-0.038719 0.0694345 0.268629 150 150 150
-0.0372402 0.0690326 0.267158 161 161 161
-0.0353046 0.0677264 0.26218 175 175 175
-0.0340721 0.0677233 0.262241 163 163 163
-0.0328189 0.0676773 0.262131 169 169 169
-0.0313316 0.0671263 0.26006 172 172 172
-0.0300197 0.0669214 0.259325 175 175 175
-0.0288088 0.066934 0.259429 166 166 166
-0.027493 0.0666933 0.258547 171 171 171
-0.0258433 0.0655829 0.25429 187 187 187
-0.0244567 0.0650652 0.252325 191 191 191
-0.0229261 0.0640923 0.248592 197 197 197
-0.0216708 0.0638261 0.247596 196 196 196
-0.0204433 0.0636164 0.246816 196 196 196
-0.0192035 0.0633409 0.245778 208 208 208
-0.0178526 0.0626401 0.243087 222 222 222
-0.0166818 0.0625191 0.242643 228 228 228
-0.0155772 0.0626467 0.243161 212 212 212
-0.0148088 0.064253 0.249418 95 95 95
-0.0159522 0.0751398 0.291702 21 21 21
-0.0142428 0.0733695 0.28485 76 76 76
-0.0127862 0.0726698 0.282151 145 145 145
-0.011523 0.0730348 0.283585 130 130 130
-0.0102212 0.0732183 0.284311 134 134 134
-0.00892873 0.0735341 0.28555 127 127 127
-0.00760004 0.0736099 0.285855 133 133 133
-0.0062673 0.0736704 0.286099 130 130 130
-0.00494668 0.0739451 0.287172 124 124 124
-0.00360483 0.0739888 0.287347 135 135 135
-0.00225922 0.0739617 0.287246 142 142 142
-0.000916917 0.0741218 0.28787 158 158 158
0.000431509 0.0743336 0.288692 168 168 168
0.00178078 0.0742596 0.288403 177 177 177
0.00314716 0.0746553 0.289937 182 182 182
0.00450977 0.0747501 0.290301 183 183 183
0.00584187 0.0744122 0.288982 197 197 197
0.00722591 0.0747387 0.290242 185 185 185
0.00859222 0.0748076 0.290499 172 172 172
0.0099847 0.0750543 0.291445 177 177 177
0.0113682 0.075182 0.291927 176 176 176
0.0127624 0.0753457 0.292547 178 178 178
0.0141621 0.075507 0.293155 179 179 179
0.0155885 0.0757697 0.294155 192 192 192
0.0170116 0.0759752 0.29493 187 187 187
0.018475 0.0763158 0.296227 176 176 176
0.019887 0.0764117 0.296572 175 175 175
0.02128 0.0764267 0.2966 150 150 150
0.0227376 0.0766578 0.297463 131 131 131
0.0244519 0.0776773 0.301383 118 118 118
0.0259198 0.077846 0.301997 98 98 98
0.0273788 0.0779717 0.302441 93 93 93
0.0286636 0.0776131 0.301004 105 105 105
0.0299019 0.0771684 0.29923 124 124 124
0.0313282 0.0772268 0.299402 124 124 124
0.0326709 0.0770831 0.298787 118 118 118
0.0329213 0.07448 0.288638 108 108 108
0.0330336 0.0717823 0.278122 98 98 98
0.0342374 0.0715716 0.277239 92 92 92
0.0356257 0.0717475 0.27785 86 86 86
0.0374181 0.0726963 0.281449 71 71 71
0.0397968 0.0746807 0.289048 54 54 54
0.041416 0.0751558 0.290797 46 46 46
0.0431981 0.0758869 0.29353 47 47 47
0.0447793 0.0762307 0.294757 45 45 45
0.0464563 0.0767119 0.296509 44 44 44
0.0487278 0.0781183 0.301827 49 49 49
0.0506781 0.0789446 0.304893 48 48 48
0.0523431 0.0792932 0.306105 59 59 59
0.0542769 0.0800195 0.308766 56 56 56
0.0592959 0.0851376 0.328354 16 16 16
0.0604026 0.0845209 0.325807 17 17 17
0.0617527 0.084267 0.324651 18 18 18
0.0629037 0.0837602 0.322513 19 19 19
0.0647892 0.0842322 0.324134 20 20 20
0.0667357 0.08476 0.325957 19 19 19
0.0675332 0.0838376 0.322194 18 18 18
0.0689024 0.0836499 0.321247 18 18 18
0.0708195 0.0841212 0.322818 16 16 16
0.0726899 0.0845182 0.32409 16 16 16
0.0743239 0.0846296 0.324254 13 13 13
0.076319 0.0851393 0.32593 13 13 13
0.0779971 0.0852821 0.326186 12 12 12
0.0796922 0.0854377 0.326477 10 10 10
0.0812356 0.0854277 0.326121 11 11 11
0.0822168 0.084838 0.323541 11 11 11
0.0846808 0.085772 0.326756 8 8 8
0.0868657 0.0863945 0.328764 6 6 6
0.0885565 0.0865123 0.328834 5 5 5
0.0887756 0.0852133 0.323508 6 6 6
0.0898039 0.0847222 0.321243 5 5 5
0.0920766 0.0854019 0.323401 5 5 5
0.0945699 0.0862604 0.326213 4 4 4
0.0955054 0.085693 0.323615 3 3 3
0.0976348 0.0861979 0.325051 5 5 5
0.100481 0.08731 0.328753 3 3 3
0.102778 0.0879172 0.330527 3 3 3
0.105576 0.088928 0.333793 2 2 2
0.109658 0.0909731 0.340907 3 3 3
0.110675 0.0904535 0.338384 3 3 3
0.112379 0.0905014 0.337972 2 2 2
0.116257 0.0922738 0.343972 3 3 3
0.115866 0.0906557 0.337319 3 3 3
0.117469 0.0906218 0.336558 3 3 3
0.121607 0.0925162 0.342932 2 2 2
0.131231 0.0984767 0.36431 3 3 3
0.136878 0.101332 0.374125 11 11 11
0.137321 0.10031 0.369604 78 78 78
0.139123 0.100295 0.368791 120 120 120
0.142175 0.10117 0.37124 123 123 123
0.144408 0.101447 0.371485 112 112 112
0.146628 0.101707 0.371666 109 109 109
0.149292 0.102266 0.372936 104 104 104
0.151062 0.102206 0.37195 103 103 103
0.152747 0.102091 0.370779 96 96 96
0.154871 0.102268 0.370683 96 96 96
0.157362 0.102681 0.371459 99 99 99
0.15929 0.10272 0.370905 93 93 93
0.161094 0.10268 0.370091 95 95 95
0.163233 0.102852 0.370074 90 90 90
0.165648 0.103192 0.370694 87 87 87
0.168236 0.103631 0.371709 80 80 80
0.169982 0.103547 0.370895 77 77 77
0.172747 0.104079 0.372332 77 77 77
0.173513 0.103408 0.369521 74 74 74
0.175477 0.103458 0.369344 69 69 69
0.179123 0.104488 0.372723 49 49 49
0.17949 0.103604 0.369334 26 26 26
0.179894 0.102758 0.36615 20 20 20
0.180794 0.102212 0.364095 18 18 18
0.182596 0.10218 0.363938 17 17 17
0.183633 0.101726 0.362341 14 14 14
0.183759 0.100781 0.359058 14 14 14
0.180652 0.0980994 0.349643 14 14 14
0.183387 0.0986113 0.351669 11 11 11
0 0 0 0 0 0
0.162615 0.0857653 0.306359 8 8 8
0.161104 0.0841615 0.300948 15 15 15
0 0 0 0 0 0
0 0 0 0 0 0
-0.210411 0.101893 0.365079 24 24 24
-0.209861 0.102513 0.366424 24 24 24
-0.208201 0.102597 0.365885 28 28 28
-0.207865 0.10334 0.367729 29 29 29
-0.206489 0.103575 0.367797 31 31 31
-0.204205 0.103355 0.366291 34 34 34
-0.202376 0.103363 0.365639 32 32 32
-0.201166 0.103691 0.366162 32 32 32
-0.199845 0.103966 0.366546 35 35 35
-0.199 0.104498 0.367876 35 35 35
-0.195822 0.103802 0.364939 40 40 40
-0.194387 0.104025 0.365292 38 38 38
-0.193277 0.104429 0.36633 40 40 40
-0.19162 0.104542 0.366405 45 45 45
-0.18943 0.104363 0.365515 44 44 44
-0.187795 0.10449 0.365758 50 50 50
-0.186885 0.105027 0.367495 48 48 48
-0.18452 0.104749 0.366443 50 50 50
-0.183217 0.105074 0.367566 48 48 48
-0.180712 0.104709 0.366338 49 49 49
-0.180011 0.105393 0.368842 56 56 56
-0.177862 0.105235 0.368464 56 56 56
-0.175143 0.104732 0.366939 56 56 56
-0.173182 0.104677 0.36704 57 57 57
-0.171262 0.104646 0.367283 67 67 67
-0.169065 0.104442 0.366975 67 67 67
-0.16695 0.104286 0.366884 73 73 73
-0.165124 0.104308 0.36747 69 69 69
-0.162862 0.104053 0.36712 83 83 83
-0.160247 0.103564 0.365982 85 85 85
-0.158707 0.103765 0.36732 83 83 83
-0.155675 0.102985 0.365211 100 100 100
-0.15388 0.103014 0.365996 100 100 100
-0.152389 0.10325 0.36754 100 100 100
-0.148679 0.101969 0.363699 114 114 114
-0.14837 0.103019 0.368181 108 108 108
-0.145583 0.102352 0.366543 95 95 95
-0.142739 0.101628 0.364699 95 95 95
-0.140588 0.101385 0.364577 100 100 100
-0.13963 0.102007 0.367569 104 104 104
-0.137396 0.101702 0.36722 111 111 111
-0.135209 0.101423 0.366956 122 122 122
-0.132314 0.100598 0.364704 120 120 120
-0.130356 0.100473 0.364973 113 113 113
-0.128276 0.10025 0.364871 110 110 110
-0.126294 0.100096 0.36501 104 104 104
-0.124444 0.100046 0.36551 105 105 105
-0.122886 0.100232 0.366857 106 106 106
-0.121324 0.10042 0.368202 102 102 102
-0.119358 0.100275 0.368308 110 110 110
-0.11744 0.100165 0.368528 114 114 114
-0.114795 0.0994229 0.366396 123 123 123
-0.11267 0.0991151 0.365843 114 114 114
-0.110835 0.0990566 0.36619 110 110 110
-0.109216 0.0991919 0.367236 106 106 106
-0.107268 0.099028 0.367157 112 112 112
-0.105343 0.0988806 0.36712 114 114 114
-0.103306 0.0986206 0.366645 112 112 112
-0.101502 0.0985784 0.366961 109 109 109
-0.0994693 0.0983087 0.366412 112 112 112
-0.0974524 0.0980452 0.365866 113 113 113
-0.0955536 0.0978929 0.365718 106 106 106
-0.0939011 0.097992 0.366492 105 105 105
-0.0920823 0.0979181 0.366603 106 106 106
-0.0901956 0.0977677 0.366411 99 99 99
-0.0883124 0.0976152 0.366195 109 109 109
-0.0863819 0.0974033 0.36574 105 105 105
-0.084385 0.0971062 0.364949 86 86 86
-0.082173 0.096544 0.363144 101 101 101
-0.0801982 0.0962423 0.362304 97 97 97
-0.0767792 0.0941563 0.354726 74 74 74
-0.0737225 0.0924312 0.348484 70 70 70
-0.0707992 0.0907983 0.342569 78 78 78
-0.0681572 0.089458 0.337739 75 75 75
-0.0653563 0.0878398 0.331841 71 71 71
-0.0643104 0.0885588 0.334761 64 64 64
-0.0609531 0.0860508 0.325469 79 79 79
-0.056936 0.0824578 0.31205 88 88 88
-0.0516941 0.076853 0.29099 122 122 122
-0.0474327 0.0724401 0.274417 206 206 206
-0.0459127 0.0720839 0.273195 189 189 189
-0.0450347 0.0727442 0.27582 136 136 136
-0.0433243 0.0720592 0.273336 132 132 132
-0.0417878 0.0716304 0.271817 142 142 142
-0.04026 0.0711899 0.270246 146 146 146
-0.0387016 0.0706647 0.268346 162 162 162
-0.0372563 0.0703177 0.267117 165 165 165
-0.0356999 0.0697295 0.264965 163 163 163
-0.0339338 0.0686744 0.261032 171 171 171
-0.032496 0.0682296 0.259413 182 182 182
-0.0311669 0.067987 0.258557 174 174 174
-0.029938 0.0679524 0.258488 166 166 166
-0.0287518 0.0680157 0.258787 159 159 159
-0.0272099 0.0672063 0.255762 178 178 178
-0.0257828 0.0666187 0.253575 173 173 173
-0.0243083 0.065846 0.25068 184 184 184
-0.0230563 0.0656279 0.249892 202 202 202
-0.0216368 0.0648844 0.2471 192 192 192
-0.0204381 0.0647563 0.246648 204 204 204
-0.0192418 0.0646206 0.246165 204 204 204
-0.0178168 0.063651 0.242501 203 203 203
-0.0166428 0.0635068 0.24198 219 219 219
-0.015508 0.0635021 0.241987 176 176 176
0 0 0 0 0 0
-0.0158588 0.0760574 0.289885 24 24 24
-0.0139705 0.0732744 0.279299 128 128 128
-0.0128409 0.074307 0.283255 166 166 166
-0.0114954 0.0741841 0.282804 143 143 143
-0.0101805 0.0742524 0.28308 147 147 147
-0.0089371 0.0749408 0.285718 137 137 137
-0.00760801 0.0750263 0.286055 143 143 143
-0.00627625 0.0751165 0.286409 138 138 138
-0.00495343 0.0753917 0.287466 126 126 126
-0.00361015 0.0754449 0.287675 131 131 131
-0.00226025 0.0753402 0.287279 145 145 145
-0.000918173 0.0755725 0.288167 161 161 161
0.000432272 0.0758183 0.289105 171 171 171
0.00178619 0.0758391 0.289183 162 162 162
0.00314195 0.0758862 0.289359 183 183 183
0.00450376 0.0760072 0.289815 173 173 173
0.00588022 0.0762622 0.29078 183 183 183
0.00723023 0.0761426 0.290315 175 175 175
0.00861488 0.0763681 0.291164 172 172 172
0.00998985 0.0764579 0.291493 181 181 181
0.0113772 0.0766095 0.292056 182 182 182
0.0127527 0.0766571 0.29222 189 189 189
0.0141604 0.0768703 0.293013 185 185 185
0.0155826 0.0771177 0.293934 200 200 200
0.0170411 0.0774902 0.295329 186 186 186
0.0184852 0.0777459 0.296276 185 185 185
0.0198932 0.0778246 0.296546 174 174 174
0.0212967 0.0778769 0.296713 168 168 168
0.0227052 0.0779397 0.296916 168 168 168
0.024141 0.0780836 0.297425 153 153 153
0.025596 0.0782707 0.298096 132 132 132
0.0273017 0.0791652 0.301456 89 89 89
0.0288779 0.0796147 0.303117 69 69 69
0.0307814 0.0808819 0.307887 57 57 57
0.031944 0.0801761 0.305142 59 59 59
0.0331576 0.0796532 0.303089 69 69 69
0.0320045 0.0737218 0.280458 99 99 99
0.0329793 0.072967 0.277521 93 93 93
0.0342643 0.0729296 0.277309 89 89 89
0.0359265 0.0736685 0.280043 71 71 71
0.0374801 0.0741405 0.281757 57 57 57
0.0397539 0.0759561 0.288569 47 47 47
0.0418128 0.077255 0.293409 45 45 45
0.0429491 0.0768208 0.29166 45 45 45
0.0450177 0.0780293 0.29614 44 44 44
0.0466049 0.0783561 0.297265 44 44 44
0.0494632 0.0807384 0.306178 47 47 47
0.0506965 0.0804086 0.304795 47 47 47
0.0523638 0.0807664 0.306011 70 70 70
0.0550071 0.0825699 0.312693 33 33 33
0.0591282 0.0864398 0.327182 14 14 14
0.0607653 0.0865738 0.327513 17 17 17
0.0618348 0.0859127 0.324827 17 17 17
0.0631426 0.0856064 0.323476 16 16 16
0.0646464 0.0855741 0.323152 17 17 17
0.0664232 0.0858964 0.324155 20 20 20
0.0679006 0.0858258 0.323664 18 18 18
0.0692122 0.0855533 0.322402 21 21 21
0.0711102 0.0860016 0.323845 15 15 15
0.0727357 0.0861086 0.323988 13 13 13
0.0742465 0.086078 0.323603 12 12 12
0.0762854 0.0866486 0.325463 12 12 12
0.0785326 0.0874284 0.328091 10 10 10
0.08012 0.0874575 0.327887 9 9 9
0.0814531 0.0872133 0.326645 9 9 9
0.0830311 0.0872355 0.326388 8 8 8
0.085685 0.0883665 0.330261 7 7 7
0.0896828 0.0908175 0.339038 6 6 6
0.0879832 0.0875144 0.326322 4 4 4
0.0892862 0.0872611 0.32498 6 6 6
0.0908285 0.0872463 0.324511 4 4 4
0.0929984 0.0878247 0.326231 4 4 4
0.0937729 0.087088 0.323052 4 4 4
0.0951896 0.086962 0.322127 4 4 4
0.0971909 0.0873656 0.323146 4 4 4
0.0999103 0.0883917 0.326445 3 3 3
0.10406 0.0906313 0.334191 3 3 3
0.108811 0.0933186 0.343543 2 2 2
0.110561 0.0933897 0.343231 2 2 2
0.110996 0.0923647 0.338881 2 2 2
0.110603 0.0906907 0.332152 2 2 2
0.113996 0.0921243 0.336792 2 2 2
0.117338 0.0934762 0.341101 2 2 2
0.118101 0.0927652 0.337865 2 2 2
0.120421 0.0932791 0.33908 3 3 3
0.126861 0.0969273 0.351649 4 4 4
0.137371 0.103545 0.374908 12 12 12
0.137866 0.102539 0.370513 79 79 79
0.139854 0.102654 0.370175 119 119 119
0.142306 0.103104 0.371032 116 116 116
0.144545 0.103388 0.371292 112 112 112
0.146862 0.103722 0.371724 101 101 101
0.14946 0.104242 0.372825 99 99 99
0.151396 0.104293 0.372258 95 95 95
0.152973 0.1041 0.370828 103 103 103
0.155347 0.104447 0.371342 98 98 98
0.157711 0.104778 0.37182 94 94 94
0.159281 0.104582 0.370447 95 95 95
0.161354 0.104715 0.370275 91 91 91
0.163547 0.104923 0.370399 88 88 88
0.16628 0.105468 0.371752 79 79 79
0.167996 0.105364 0.370855 75 75 75
0.169877 0.105364 0.370374 73 73 73
0.171978 0.105499 0.37042 78 78 78
0.173867 0.105502 0.370055 76 76 76
0.175861 0.105569 0.369969 70 70 70
0.177697 0.10554 0.36961 62 62 62
0.179622 0.105564 0.369497 37 37 37
0.180456 0.104953 0.367225 20 20 20
0.181516 0.104485 0.365514 17 17 17
0.181915 0.103649 0.362585 15 15 15
0.18235 0.102851 0.359848 14 14 14
0.185167 0.103399 0.361881 14 14 14
0.185971 0.102823 0.360043 12 12 12
0.182999 0.100191 0.351057 12 12 12
0.183518 0.0995028 0.348932 10 10 10
0 0 0 0 0 0
0 0 0 0 0 0
0 0 0 0 0 0
0 0 0 0 0 0
-0.214073 0.105517 0.371876 23 23 23
-0.210106 0.104465 0.367279 24 24 24
-0.20845 0.104553 0.366734 26 26 26
-0.20702 0.104758 0.366632 29 29 29
-0.206324 0.10534 0.367886 31 31 31
-0.203178 0.104671 0.364811 32 32 32
-0.20193 0.104977 0.365177 30 30 30
-0.200889 0.105396 0.365981 30 30 30
-0.199901 0.105852 0.366952 31 31 31
-0.198326 0.106002 0.366908 32 32 32
-0.196771 0.106167 0.366963 33 33 33
-0.194281 0.105824 0.365319 36 36 36
-0.192991 0.106136 0.365987 35 35 35
-0.191296 0.106228 0.365955 41 41 41
-0.189549 0.106293 0.365885 42 42 42
-0.187831 0.106376 0.365934 50 50 50
-0.186229 0.106527 0.366277 47 47 47
-0.184502 0.106609 0.366446 47 47 47
-0.183166 0.10692 0.367464 48 48 48
-0.181662 0.107139 0.368228 54 54 54
-0.179698 0.107088 0.368129 53 53 53
-0.177061 0.106631 0.366693 57 57 57
-0.174583 0.106261 0.365618 61 61 61
-0.173128 0.106512 0.366739 61 61 61
-0.171712 0.106794 0.368023 61 61 61
-0.169305 0.106458 0.367237 60 60 60
-0.16726 0.106345 0.367271 62 62 62
-0.166007 0.106738 0.369107 70 70 70
-0.162565 0.105717 0.366092 77 77 77
-0.161205 0.106042 0.367779 73 73 73
-0.159446 0.106109 0.368613 83 83 83
-0.156344 0.105274 0.366342 98 98 98
-0.153892 0.104861 0.365563 105 105 105
-0.151929 0.104775 0.365949 99 99 99
-0.149824 0.104589 0.366001 101 101 101
-0.147496 0.10424 0.365498 98 98 98
-0.145381 0.104035 0.365509 89 89 89
-0.143034 0.103656 0.364917 92 92 92
-0.141125 0.103589 0.365424 95 95 95
-0.13954 0.103761 0.366779 98 98 98
-0.137562 0.103642 0.367103 110 110 110
-0.135423 0.103397 0.366977 113 113 113
-0.133299 0.103156 0.366858 115 115 115
-0.131075 0.102831 0.366426 106 106 106
-0.128741 0.102409 0.365635 109 109 109
-0.126717 0.102225 0.36568 108 108 108
-0.124804 0.102127 0.366016 104 104 104
-0.123108 0.102206 0.366973 109 109 109
-0.121392 0.102269 0.367864 101 101 101
-0.119442 0.102136 0.368028 112 112 112
-0.117318 0.101847 0.367614 115 115 115
-0.115386 0.101719 0.367761 123 123 123
-0.112846 0.101042 0.365902 114 114 114
-0.11094 0.10092 0.366031 109 109 109
-0.109167 0.100917 0.366576 116 116 116
-0.107469 0.100985 0.367358 115 115 115
-0.105492 0.100787 0.367158 116 116 116
-0.10366 0.100726 0.367434 111 111 111
-0.101808 0.100641 0.367609 108 108 108
-0.0997257 0.100322 0.366906 115 115 115
-0.0974201 0.0997623 0.365306 118 118 118
-0.0956115 0.0997009 0.36551 111 111 111
-0.093929 0.099771 0.366179 108 108 108
-0.0920978 0.0996829 0.366252 108 108 108
-0.0902282 0.099549 0.366141 103 103 103
-0.0883769 0.0994303 0.366069 105 105 105
-0.086567 0.0993545 0.366139 98 98 98
-0.084583 0.0990716 0.36543 95 95 95
-0.0822965 0.0984151 0.363326 109 109 109
-0.080542 0.0983803 0.363502 100 100 100
-0.0785189 0.0980087 0.362418 76 76 76
-0.0743978 0.094943 0.35135 72 72 72
-0.0706578 0.0922346 0.341576 77 77 77
-0.0679597 0.0907911 0.336463 69 69 69
-0.0653598 0.0894126 0.331574 72 72 72
-0.0638036 0.0894293 0.331845 59 59 59
-0.0604585 0.0868762 0.322564 80 80 80
-0.0568286 0.0837714 0.311213 94 94 94
-0.0497412 0.0752697 0.279781 153 153 153
-0.0472485 0.0734469 0.273145 206 206 206
-0.0462825 0.0739617 0.275194 164 164 164
-0.04481 0.0736733 0.274247 135 135 135
-0.0432038 0.0731415 0.272386 139 139 139
-0.0418294 0.0729816 0.271903 144 144 144
-0.0403513 0.0726249 0.27068 148 148 148
-0.0387642 0.0720426 0.268608 162 162 162
-0.0371042 0.0712808 0.26586 170 170 170
-0.035652 0.0708789 0.264448 168 168 168
-0.0338814 0.0697923 0.260474 160 160 160
-0.0325837 0.0696348 0.259961 179 179 179
-0.0313872 0.0696898 0.260238 172 172 172
-0.0300039 0.0693177 0.258915 170 170 170
-0.0285159 0.0686619 0.256526 168 168 168
-0.0271883 0.0683518 0.255425 161 161 161
-0.0257968 0.0678449 0.253584 178 178 178
-0.0243202 0.0670543 0.250678 182 182 182
-0.0231095 0.0669536 0.250347 186 186 186
-0.0217058 0.0662532 0.24777 202 202 202
-0.0204838 0.0660596 0.247085 207 207 207
-0.0192571 0.0658267 0.246249 209 209 209
-0.0180268 0.0655506 0.245249 212 212 212
-0.016645 0.0646489 0.241905 222 222 222
-0.0157899 0.0658108 0.246281 122 122 122
-0.0168605 0.0758143 0.283746 23 23 23
-0.0154418 0.0753799 0.282146 48 48 48
-0.0141183 0.0753715 0.282139 125 125 125
-0.0126821 0.0746983 0.27964 154 154 154
-0.0114503 0.0752121 0.281583 150 150 150
-0.0102334 0.0759707 0.28444 148 148 148
-0.00891483 0.0760885 0.284895 140 140 140
-0.0076099 0.0763846 0.286017 144 144 144
-0.00629956 0.0767415 0.287363 126 126 126
-0.00495909 0.0768253 0.287686 125 125 125
-0.00361285 0.076849 0.287781 129 129 129
-0.00226046 0.0766922 0.287198 145 145 145
-0.000911723 0.0763812 0.286036 166 166 166
0.000432833 0.077272 0.289372 163 163 163
0.00178839 0.0772877 0.289429 173 173 173
0.00313988 0.0771902 0.28906 169 169 169
0.00452833 0.0777861 0.291286 173 173 173
0.00588659 0.0777076 0.290984 178 178 178
0.00724558 0.0776664 0.29082 177 177 177
0.00861423 0.0777254 0.291029 173 173 173
0.0100029 0.077924 0.291758 164 164 164
0.0113785 0.0779858 0.291973 174 174 174
0.0128055 0.0783488 0.293314 178 178 178
0.0142905 0.0789613 0.295585 176 176 176
0.0156136 0.0786506 0.294398 185 185 185
0.0170468 0.0788997 0.295304 172 172 172
0.0184383 0.0789328 0.295398 179 179 179
0.0198586 0.0790764 0.295903 174 174 174
0.0212807 0.0792076 0.296359 179 179 179
0.022691 0.0792815 0.296597 184 184 184
0.0242641 0.0798828 0.298804 188 188 188
0.025577 0.0796086 0.297733 178 178 178
0.026949 0.0795373 0.297417 143 143 143
0.0286763 0.0804701 0.300852 98 98 98
0.0304513 0.081443 0.304431 56 56 56
0.0318953 0.0814829 0.304518 44 44 44
0.0310306 0.0758743 0.283496 77 77 77
0.0316038 0.0740984 0.276796 103 103 103
0.033013 0.0743453 0.277649 95 95 95
0.0345806 0.0749167 0.279708 82 82 82
0.036316 0.0757965 0.282913 61 61 61
0.0379717 0.0764537 0.28528 48 48 48
0.0396205 0.0770525 0.287422 46 46 46
0.0417369 0.0784913 0.292689 41 41 41
0.0435095 0.0792123 0.295271 42 42 42
0.044928 0.079264 0.295351 43 43 43
0.0467661 0.0800306 0.298087 46 46 46
0.0494034 0.0820804 0.305591 47 47 47
0.0510086 0.0823479 0.306448 54 54 54
0.0513796 0.080663 0.300035 77 77 77
0.0573344 0.0875997 0.325673 19 19 19
0.0592888 0.0882218 0.327812 14 14 14
0.0609335 0.0883632 0.328154 15 15 15
0.062175 0.0879273 0.326343 17 17 17
0.063538 0.0876802 0.325225 15 15 15
0.06498 0.0875513 0.324536 16 16 16
0.0663992 0.0873982 0.323748 15 15 15
0.0675908 0.0869593 0.321891 14 14 14
0.0691542 0.0870074 0.321828 15 15 15
0.0710403 0.0874508 0.323214 14 14 14
0.0732058 0.0882122 0.32576 14 14 14
0.0745446 0.0879663 0.324572 12 12 12
0.0763002 0.0882125 0.325188 12 12 12
0.0785709 0.0890324 0.327902 11 11 11
0.0801738 0.0890785 0.32775 11 11 11
0.0809373 0.0882081 0.324215 8 8 8
0.0824727 0.0881957 0.323824 7 7 7
0.0843344 0.0885263 0.324677 7 7 7
0.088427 0.0911443 0.333892 5 5 5
0.088344 0.0894419 0.327262 4 4 4
0.0888697 0.0884044 0.323062 5 5 5
0.092758 0.0906902 0.330985 3 3 3
0.094059 0.0904119 0.329525 3 3 3
0.0947637 0.0895791 0.326035 4 4 4
0.0970955 0.0902866 0.328135 4 4 4
0.0975425 0.0892468 0.323872 4 4 4
0.10037 0.0903833 0.327491 3 3 3
0.104714 0.0928292 0.335818 2 2 2
0.108527 0.0947366 0.342156 2 2 2
0.110303 0.094835 0.341933 3 3 3
0.111081 0.0940853 0.338641 2 2 2
0.113776 0.0949574 0.341172 3 3 3
0.115638 0.0951194 0.341131 2 2 2
0.118481 0.0960713 0.343902 1 1 1
0.119701 0.0957001 0.341921 3 3 3
0.1223 0.0964262 0.343847 2 2 2
0 0 0 0 0 0
0.137898 0.105798 0.375774 16 16 16
0.138541 0.10488 0.371761 81 81 81
0.14003 0.104618 0.370081 115 115 115
0.141938 0.104672 0.369518 114 114 114
0.144518 0.105214 0.370675 102 102 102
0.14688 0.105586 0.371229 98 98 98
0.149962 0.106459 0.373549 92 92 92
0.152363 0.106834 0.37412 93 93 93
0.154126 0.106757 0.373128 98 98 98
0.155872 0.10667 0.372119 90 90 90
0.157797 0.106707 0.371569 93 93 93
0.159773 0.106777 0.37116 95 95 95
0.162088 0.107069 0.371556 91 91 91
0.164143 0.107185 0.371376 84 84 84
0.166457 0.107465 0.371804 75 75 75
0.168187 0.107367 0.370968 72 72 72
0.169765 0.107174 0.369856 77 77 77
0.171861 0.107309 0.369929 81 81 81
0.174022 0.107481 0.370183 77 77 77
0.175791 0.107411 0.36966 69 69 69
0.177618 0.107376 0.36932 61 61 61
0.179582 0.107425 0.369328 48 48 48
0.181962 0.107718 0.370239 26 26 26
0.183208 0.107342 0.36891 17 17 17
0.183038 0.106151 0.364847 15 15 15
0.183611 0.105411 0.362395 14 14 14
0.183548 0.104325 0.358809 13 13 13
0.185966 0.104656 0.360158 11 11 11
0.18526 0.103239 0.355548 11 11 11
0.183733 0.101397 0.34952 9 9 9
0.184066 0.100607 0.347164 8 8 8
0 0 0 0 0 0
0 0 0 0 0 0
0 0 0 0 0 0
-0.211271 0.105962 0.367461 21 21 21
-0.210598 0.106546 0.368581 22 22 22
-0.208395 0.106359 0.367065 25 25 25
-0.207563 0.106874 0.368006 27 27 27
-0.205936 0.106986 0.367591 27 27 27
-0.2036 0.106728 0.365947 31 31 31
-0.20182 0.10676 0.365338 31 31 31
-0.201337 0.107484 0.36714 29 29 29
-0.199188 0.107324 0.365961 29 29 29
-0.197996 0.107682 0.366594 30 30 30
-0.196177 0.107703 0.366127 32 32 32
-0.194951 0.108052 0.366826 33 33 33
-0.193067 0.108039 0.366348 35 35 35
-0.190997 0.107922 0.365571 42 42 42
-0.189097 0.1079 0.36517 44 44 44
-0.188313 0.108519 0.366999 45 45 45
-0.186611 0.108617 0.367122 42 42 42
-0.185455 0.109038 0.368396 47 47 47
-0.183595 0.10905 0.368348 49 49 49
-0.181635 0.109002 0.368159 53 53 53
-0.179863 0.109066 0.368414 50 50 50
-0.176963 0.108441 0.3664 56 56 56
-0.174801 0.10826 0.365946 57 57 57
-0.173529 0.108632 0.367423 61 61 61
-0.172056 0.108884 0.368556 59 59 59
-0.169882 0.108694 0.368246 58 58 58
-0.167805 0.108562 0.36819 55 55 55
-0.164924 0.107902 0.366387 65 65 65
-0.16289 0.107786 0.36648 73 73 73
-0.161327 0.107983 0.367681 69 69 69
-0.159189 0.107796 0.367615 87 87 87
-0.156208 0.107027 0.365594 99 99 99
-0.153985 0.106764 0.36533 96 96 96
-0.152078 0.106718 0.365831 87 87 87
-0.150223 0.106706 0.366477 91 91 91
-0.147959 0.1064 0.36613 90 90 90
-0.14549 0.105938 0.365255 92 92 92
-0.143691 0.105958 0.366052 102 102 102
-0.14169 0.105828 0.366337 97 97 97
-0.13952 0.105566 0.366169 102 102 102
-0.137184 0.10517 0.365532 114 114 114
-0.135157 0.105004 0.36569 113 113 113
-0.13291 0.104659 0.36522 115 115 115
-0.131013 0.104585 0.365682 110 110 110
-0.128952 0.104376 0.365665 106 106 106
-0.126969 0.104225 0.36584 104 104 104
-0.124816 0.103928 0.365488 109 109 109
-0.123055 0.103953 0.366255 110 110 110
-0.12118 0.103882 0.366668 102 102 102
-0.119047 0.103584 0.366263 107 107 107
-0.11744 0.103741 0.367453 110 110 110
-0.115139 0.103281 0.366436 119 119 119
-0.113096 0.103041 0.366183 107 107 107
-0.110852 0.102609 0.365223 110 110 110
-0.109096 0.10262 0.365825 111 111 111
-0.107432 0.10272 0.366726 115 115 115
-0.105582 0.102643 0.366979 113 113 113
-0.103894 0.102723 0.367774 108 108 108
-0.102169 0.102769 0.368433 104 104 104
-0.0997488 0.102105 0.366524 117 117 117
-0.0978655 0.101976 0.366518 115 115 115
-0.0959227 0.10178 0.366251 109 109 109
-0.0940504 0.101652 0.366214 109 109 109
-0.0922185 0.101564 0.366303 102 102 102
-0.0903501 0.101432 0.366215 102 102 102
-0.0886113 0.101443 0.366629 103 103 103
-0.086657 0.101202 0.366118 95 95 95
-0.0847431 0.101 0.36573 102 102 102
-0.082931 0.100913 0.365745 109 109 109
-0.0807894 0.100413 0.364246 102 102 102
-0.0787039 0.0999625 0.36291 82 82 82
-0.0741619 0.0963019 0.349895 68 68 68
-0.0706335 0.0938198 0.341133 71 71 71
-0.067343 0.0915449 0.3331 71 71 71
-0.0654188 0.0910629 0.331573 72 72 72
-0.0636213 0.0907377 0.330604 63 63 63
-0.0606198 0.0886358 0.323146 74 74 74
0 0 0 0 0 0
-0.0489362 0.0753503 0.275027 170 170 170
-0.0477497 0.0755279 0.275822 182 182 182
-0.0468051 0.0761086 0.278084 147 147 147
-0.045286 0.0757617 0.276949 140 140 140
-0.0433403 0.0746593 0.273044 146 146 146
-0.0416799 0.0739962 0.270736 157 157 157
-0.0402108 0.0736413 0.269547 155 155 155
-0.0388623 0.0734915 0.269103 153 153 153
-0.0368728 0.0720786 0.264025 169 169 169
-0.0353306 0.0714719 0.261893 167 167 167
-0.0339637 0.0711888 0.26094 176 176 176
