ply
format ascii 1.0
comment Generated by royaleviewer 3.23.086
element vertex 1388
property float x
property float y
property float z
property uchar red
property uchar green
property uchar blue
element face 0
property list uchar int vertex_index
end_header
0.105785 0.15206 0.464071 30 30 30
0.10848 0.152708 0.465521 29 29 29
0.111019 0.153113 0.466212 31 31 31
0.112163 0.151616 0.461095 40 40 40
0.114692 0.152014 0.461727 33 33 33
0.117152 0.152306 0.462019 33 33 33
0.119288 0.152175 0.461006 30 30 30
0.121877 0.152615 0.461705 29 29 29
0.126232 0.155212 0.468896 26 26 26
0.128333 0.154993 0.467554 25 25 25
0.130304 0.154628 0.465756 29 29 29
0.133325 0.1555 0.467666 28 28 28
0.134939 0.154729 0.464619 30 30 30
0.137362 0.154896 0.464374 31 31 31
0.140823 0.15621 0.467545 30 30 30
0.159072 0.173621 0.51879 14 14 14
0.165621 0.177914 0.530716 53 53 53
0.169188 0.17892 0.532795 71 71 71
0.172097 0.179211 0.532729 72 72 72
0.174344 0.178813 0.530608 72 72 72
0.177017 0.178857 0.529794 78 78 78
0.180155 0.179364 0.530346 78 78 78
0.183598 0.180154 0.531728 71 71 71
0.18689 0.180777 0.532613 66 66 66
0.18922 0.180464 0.530746 67 67 67
0.192086 0.180665 0.530403 72 72 72
0.195544 0.181408 0.531662 71 71 71
0.198726 0.18188 0.532138 67 67 67
0.201394 0.181874 0.531242 64 64 64
0.203416 0.181293 0.528696 67 67 67
0.206125 0.181332 0.527993 67 67 67
0.209342 0.181811 0.52861 60 60 60
0.212872 0.182546 0.53001 58 58 58
0.215783 0.182738 0.529878 55 55 55
0.218325 0.182617 0.528892 54 54 54
0.221213 0.182785 0.528798 56 56 56
0.224374 0.183172 0.529397 51 51 51
0.227416 0.183453 0.529755 47 47 47
0.229085 0.182634 0.527004 48 48 48
0.231499 0.18242 0.526072 48 48 48
0.234362 0.182561 0.526237 47 47 47
0.237611 0.182996 0.527323 46 46 46
0.240527 0.183168 0.527726 41 41 41
0.242853 0.182892 0.526914 41 41 41
0.244848 0.182375 0.525487 39 39 39
0.248028 0.182742 0.526684 37 37 37
0.250053 0.182261 0.52551 33 33 33
0.252346 0.181982 0.524995 33 33 33
0.256042 0.18271 0.527461 34 34 34
0.258561 0.182592 0.52756 32 32 32
0.259967 0.181699 0.525487 29 29 29
0.260861 0.180469 0.522506 29 29 29
0.2611 0.178815 0.518354 28 28 28
0 0 0 0 0 0
0 0 0 0 0 0
0 0 0 0 0 0
0 0 0 0 0 0
0 0 0 0 0 0
0 0 0 0 0 0
0 0 0 0 0 0
0 0 0 0 0 0
0 0 0 0 0 0
0 0 0 0 0 0
0 0 0 0 0 0
0 0 0 0 0 0
0 0 0 0 0 0
-0.304979 0.190182 0.556015 9 9 9
-0.306087 0.192613 0.56177 9 9 9
-0.302778 0.192284 0.559503 11 11 11
-0.301568 0.193294 0.561174 12 12 12
-0.299286 0.19363 0.560927 11 11 11
-0.297055 0.194005 0.560842 12 12 12
-0.295456 0.194804 0.56203 11 11 11
-0.293675 0.195497 0.562962 13 13 13
-0.290673 0.195383 0.561623 14 14 14
-0.286524 0.194489 0.558107 15 15 15
-0.283066 0.19405 0.555967 16 16 16
-0.281003 0.194568 0.556633 18 18 18
-0.277928 0.194389 0.555373 21 21 21
-0.27646 0.195342 0.55741 22 22 22
-0.274157 0.195718 0.557869 24 24 24
-0.271592 0.195913 0.557886 24 24 24
-0.268894 0.196016 0.55771 21 21 21
-0.265742 0.195786 0.556666 25 25 25
-0.261969 0.195089 0.554373 25 25 25
-0.258047 0.194264 0.551797 28 28 28
-0.254545 0.193741 0.55016 29 29 29
-0.252434 0.194276 0.551607 30 30 30
-0.251612 0.195828 0.556018 31 31 31
-0.249525 0.196418 0.557779 31 31 31
-0.246263 0.196087 0.557005 31 31 31
-0.242447 0.195301 0.555013 33 33 33
-0.238506 0.194395 0.552754 34 34 34
-0.235686 0.194393 0.553135 33 33 33
-0.232994 0.194497 0.55389 34 34 34
-0.230271 0.194577 0.554645 39 39 39
-0.226774 0.193997 0.553578 39 39 39
-0.223102 0.193251 0.552094 39 39 39
-0.220327 0.193273 0.552857 39 39 39
-0.217524 0.19327 0.553598 40 40 40
-0.213189 0.191889 0.550432 42 42 42
-0.210126 0.191631 0.55052 49 49 49
-0.207477 0.191749 0.551725 51 51 51
-0.20431 0.191384 0.55157 47 47 47
-0.200051 0.189973 0.548417 49 49 49
-0.19717 0.189849 0.548993 53 53 53
-0.194285 0.189719 0.549565 58 58 58
-0.191078 0.189265 0.54921 56 56 56
-0.187879 0.188805 0.548842 58 58 58
-0.185077 0.188737 0.549615 59 59 59
-0.182663 0.189069 0.551553 60 60 60
-0.179887 0.189031 0.552413 60 60 60
-0.176625 0.188473 0.551744 55 55 55
-0.172909 0.187405 0.549566 60 60 60
-0.169194 0.186304 0.547271 62 62 62
-0.166011 0.185763 0.546601 61 61 61
-0.163112 0.185527 0.546812 59 59 59
-0.160629 0.185763 0.548398 59 59 59
-0.157879 0.185695 0.549071 58 58 58
-0.154705 0.185117 0.548213 61 61 61
-0.152096 0.185205 0.54931 60 60 60
-0.149047 0.184752 0.54878 62 62 62
-0.145603 0.183784 0.546695 63 63 63
-0.142938 0.183782 0.547456 60 60 60
-0.1409 0.184599 0.550643 61 61 61
-0.137904 0.18417 0.550092 64 64 64
-0.135169 0.18408 0.550531 66 66 66
-0.132185 0.18364 0.5499 63 63 63
-0.128545 0.182252 0.546401 62 62 62
-0.125624 0.181845 0.545819 65 65 65
-0.122545 0.181187 0.544457 63 63 63
-0.120016 0.181333 0.545489 61 61 61
-0.118227 0.182629 0.549963 59 59 59
-0.115375 0.182303 0.549538 56 56 56
-0.11199 0.1811 0.546445 60 60 60
-0.109245 0.1809 0.546353 56 56 56
-0.106708 0.181043 0.547277 59 59 59
-0.10394 0.180791 0.54699 66 66 66
-0.10123 0.180628 0.546954 61 61 61
-0.0984353 0.180303 0.546408 64 64 64
-0.09593 0.180505 0.547438 62 62 62
-0.0931138 0.180116 0.546661 63 63 63
-0.0902804 0.179671 0.545695 61 61 61
-0.0875575 0.179425 0.545317 59 59 59
-0.0850174 0.179551 0.546052 61 61 61
-0.0825253 0.179789 0.547113 56 56 56
-0.0798858 0.179712 0.547198 58 58 58
-0.0770553 0.179184 0.545899 60 60 60
-0.0742046 0.178572 0.544325 60 60 60
-0.0714774 0.178223 0.543538 60 60 60
-0.0690233 0.178554 0.544813 59 59 59
-0.0663249 0.178255 0.54415 58 58 58
-0.063451 0.177441 0.541902 65 65 65
-0.0609842 0.177744 0.543053 61 61 61
-0.0585704 0.178236 0.544769 59 59 59
-0.0560069 0.178296 0.545154 65 65 65
-0.0532227 0.177625 0.543294 61 61 61
-0.0503515 0.176581 0.540279 58 58 58
-0.0478069 0.176632 0.540603 63 63 63
-0.0454248 0.177323 0.542876 51 51 51
-0.0415768 0.172032 0.526819 10 10 10
-0.0390725 0.17198 0.526794 2 2 2
-0.0356311 0.167516 0.513239 1 1 1
-0.0330186 0.16658 0.510485 1 1 1
-0.0308672 0.168007 0.514961 2 2 2
-0.0284562 0.168144 0.515476 3 3 3
-0.0260384 0.168263 0.515927 3 3 3
-0.0232649 0.16587 0.508667 3 3 3
-0.0206602 0.164269 0.503825 2 2 2
-0.0184812 0.166075 0.509425 3 3 3
-0.0164228 0.169669 0.520504 2 2 2
-0.0134651 0.163601 0.501934 2 2 2
-0.0109268 0.161124 0.494373 2 2 2
-0.00867997 0.162768 0.499447 2 2 2
-0.00643005 0.165558 0.508033 3 3 3
-0.00395191 0.162297 0.498041 2 2 2
-0.00162016 0.164297 0.504186 2 2 2
0.000785887 0.169828 0.521162 2 2 2
0.00325376 0.170209 0.522324 1 1 1
0.00555724 0.16537 0.50746 1 1 1
0.00796161 0.165544 0.507974 1 1 1
0.0108539 0.173434 0.532156 2 2 2
0.0136253 0.176789 0.542412 1 1 1
0.016164 0.176541 0.541605 9 9 9
0.018654 0.175901 0.539588 51 51 51
0.0212171 0.176022 0.539896 71 71 71
0.0237435 0.175844 0.53928 76 76 76
0.0262777 0.175753 0.538924 75 75 75
0.0288501 0.175912 0.539322 71 71 71
0.0314429 0.176159 0.539983 77 77 77
0.0339695 0.176026 0.53947 82 82 82
0.0364894 0.175879 0.538905 80 80 80
0.0391258 0.176276 0.539998 75 75 75
0.0417725 0.176668 0.541066 77 77 77
0.0443273 0.176648 0.540863 78 78 78
0.0468023 0.17633 0.539736 76 76 76
0.0492251 0.175859 0.53813 68 68 68
0.0516319 0.175379 0.53649 75 75 75
0.0543584 0.17598 0.538142 71 71 71
0.0569583 0.176135 0.538422 75 75 75
0.059428 0.175891 0.53747 72 72 72
0.0619562 0.175834 0.537077 76 76 76
0.0644731 0.17575 0.536591 71 71 71
0.0671634 0.176128 0.537499 77 77 77
0.0696809 0.176041 0.536979 79 79 79
0.0722984 0.176204 0.537207 77 77 77
0.0749285 0.176386 0.537478 76 76 76
0.0775697 0.17658 0.537775 77 77 77
0.0799027 0.176084 0.535951 78 78 78
0.0823675 0.175899 0.535065 73 73 73
0.0848206 0.175701 0.534124 73 73 73
0.087255 0.175478 0.53309 80 80 80
0.089592 0.175076 0.531502 81 81 81
0.0812291 0.154363 0.468281 63 63 63
0.0836494 0.154703 0.468958 50 50 50
0.0857944 0.154529 0.468062 54 54 54
0.0875828 0.153739 0.465285 60 60 60
0.0901193 0.154268 0.466487 41 41 41
0.0925309 0.154562 0.466962 39 39 39
0.0947242 0.154487 0.466303 44 44 44
0.0965015 0.153753 0.46364 38 38 38
0.0988601 0.153956 0.463792 35 35 35
0.101248 0.154196 0.464031 26 26 26
0.103548 0.154294 0.463829 31 31 31
0.10581 0.154333 0.46343 28 28 28
0.107694 0.15383 0.461388 29 29 29
0.110262 0.154305 0.462261 29 29 29
0.112721 0.154611 0.462608 30 30 30
0.114356 0.153797 0.459589 32 32 32
0.117207 0.154619 0.461437 28 28 28
0.11948 0.154661 0.46094 27 27 27
0.12096 0.153694 0.457422 28 28 28
0.125136 0.156126 0.463996 27 27 27
0.128335 0.157274 0.466721 26 26 26
0.131139 0.157907 0.467893 25 25 25
0.133757 0.158297 0.468325 28 28 28
0.135556 0.157722 0.465887 28 28 28
0.137732 0.157597 0.464766 28 28 28
0.140615 0.158273 0.465992 29 29 29
0 0 0 0 0 0
0.165131 0.179996 0.528165 39 39 39
0.168886 0.181227 0.530864 69 69 69
0.171687 0.181412 0.530481 71 71 71
0.174515 0.181619 0.530158 74 74 74
0.17729 0.181767 0.529653 71 71 71
0.180299 0.182147 0.529824 71 71 71
0.183634 0.182839 0.530901 67 67 67
0.186826 0.183372 0.531516 68 68 68
0.189746 0.183627 0.53133 64 64 64
0.192525 0.18374 0.530746 67 67 67
0.19598 0.184486 0.532007 65 65 65
0.198858 0.184677 0.531684 61 61 61
0.200979 0.184169 0.529379 64 64 64
0.203362 0.18391 0.527827 62 62 62
0.20595 0.183842 0.52686 65 65 65
0.210051 0.185108 0.529756 61 61 61
0.213217 0.185529 0.530272 57 57 57
0.216141 0.185732 0.530213 52 52 52
0.219015 0.185888 0.530072 52 52 52
0.221358 0.185594 0.528711 50 50 50
0.224701 0.186135 0.52979 51 51 51
0.228031 0.186654 0.530869 48 48 48
0.228749 0.185047 0.525974 47 47 47
0.229956 0.183868 0.522369 44 44 44
0.235104 0.185832 0.527766 44 44 44
0.237607 0.185684 0.527237 42 42 42
0.239992 0.185447 0.526533 40 40 40
0.242296 0.185155 0.525745 41 41 41
0.245721 0.185716 0.527456 38 38 38
0.247978 0.185392 0.526729 35 35 35
0.249802 0.184755 0.525187 29 29 29
0.252276 0.184606 0.525105 35 35 35
0.255133 0.184738 0.525895 33 33 33
0.258045 0.184907 0.526861 29 29 29
0.260642 0.184849 0.527251 27 27 27
0 0 0 0 0 0
0 0 0 0 0 0
0 0 0 0 0 0
0 0 0 0 0 0
0 0 0 0 0 0
0 0 0 0 0 0
0 0 0 0 0 0
0 0 0 0 0 0
0 0 0 0 0 0
0 0 0 0 0 0
0 0 0 0 0 0
0 0 0 0 0 0
0 0 0 0 0 0
0 0 0 0 0 0
0 0 0 0 0 0
-0.308588 0.195221 0.563461 10 10 10
-0.304301 0.194264 0.559338 9 9 9
-0.303711 0.195671 0.562059 11 11 11
-0.301938 0.196335 0.562675 11 11 11
-0.298291 0.195782 0.559848 12 12 12
-0.295981 0.196104 0.559574 13 13 13
-0.294832 0.197208 0.561577 13 13 13
-0.291987 0.19719 0.56043 13 13 13
-0.288156 0.196497 0.557428 14 14 14
-0.286318 0.197164 0.558341 15 15 15
-0.284708 0.198003 0.559795 17 17 17
-0.2806 0.197104 0.556396 17 17 17
-0.27699 0.19654 0.554015 21 21 21
-0.275446 0.197445 0.555842 21 21 21
-0.273913 0.198377 0.557807 22 22 22
-0.271227 0.198485 0.55752 22 22 22
-0.268328 0.198437 0.556868 20 20 20
-0.265256 0.198259 0.555928 22 22 22
-0.262462 0.198287 0.555641 25 25 25
-0.260618 0.199042 0.557464 27 27 27
-0.255609 0.197369 0.552568 26 26 26
-0.253282 0.197753 0.55351 26 26 26
-0.251544 0.198611 0.555855 27 27 27
-0.249027 0.198866 0.556593 28 28 28
-0.245743 0.198507 0.555689 30 30 30
-0.24268 0.198321 0.555346 30 30 30
-0.240087 0.198519 0.556155 31 31 31
-0.236845 0.198179 0.555527 31 31 31
-0.233341 0.197608 0.554324 34 34 34
-0.230109 0.197257 0.553804 38 38 38
-0.226659 0.196708 0.552791 37 37 37
-0.222928 0.195898 0.551102 39 39 39
-0.219844 0.195643 0.551027 40 40 40
-0.21701 0.195607 0.551623 42 42 42
-0.214267 0.195654 0.552499 42 42 42
-0.210902 0.195125 0.551792 44 44 44
-0.208381 0.195374 0.553323 43 43 43
-0.20523 0.195032 0.553212 47 47 47
-0.200314 0.192979 0.548269 49 49 49
-0.197412 0.192837 0.548766 54 54 54
-0.194733 0.192911 0.549902 58 58 58
-0.191609 0.19254 0.549781 54 54 54
-0.188413 0.192085 0.549429 55 55 55
-0.185407 0.191814 0.549605 56 56 56
-0.182516 0.191654 0.550104 55 55 55
-0.179765 0.191639 0.551018 51 51 51
-0.176557 0.19113 0.550506 54 54 54
-0.172978 0.190196 0.548757 57 57 57
-0.16946 0.1893 0.547102 59 59 59
-0.166325 0.188811 0.546605 55 55 55
-0.163694 0.188886 0.547729 56 56 56
-0.161011 0.188903 0.548672 55 55 55
-0.158032 0.188568 0.548575 56 56 56
-0.155126 0.18831 0.548684 58 58 58
-0.152289 0.188127 0.548992 57 57 57
-0.149145 0.187552 0.548132 61 61 61
-0.145647 0.186503 0.545862 61 61 61
-0.143271 0.186878 0.547739 59 59 59
-0.141128 0.187577 0.55055 64 64 64
-0.138303 0.187379 0.550709 62 62 62
-0.135409 0.187078 0.550543 61 61 61
-0.132387 0.186585 0.549788 59 59 59
-0.128942 0.185463 0.547152 65 65 65
-0.125691 0.184578 0.545189 62 62 62
-0.122733 0.184096 0.544389 64 64 64
-0.119804 0.183636 0.543632 58 58 58
-0.118306 0.185398 0.549438 56 56 56
-0.115539 0.185207 0.549441 54 54 54
-0.112026 0.183783 0.54576 57 57 57
-0.109414 0.183804 0.546346 60 60 60
-0.1069 0.183997 0.547425 63 63 63
-0.104746 0.184832 0.5504 59 59 59
-0.10112 0.183047 0.545549 58 58 58
-0.0985763 0.183178 0.546389 59 59 59
-0.0959171 0.183095 0.546574 59 59 59
-0.0930184 0.182538 0.545324 58 58 58
-0.0899375 0.181582 0.542859 61 61 61
-0.0874831 0.18187 0.544101 62 62 62
-0.0851161 0.182364 0.545941 58 58 58
-0.0826901 0.182759 0.54747 56 56 56
-0.079983 0.182537 0.547139 59 59 59
-0.0771494 0.182003 0.545853 58 58 58
-0.0743193 0.181439 0.544465 55 55 55
-0.071667 0.181285 0.544288 55 55 55
-0.0691641 0.181511 0.545241 60 60 60
-0.0666028 0.181596 0.545755 57 57 57
-0.063767 0.180908 0.543936 54 54 54
-0.0610317 0.18046 0.542821 58 58 58
-0.0586061 0.180928 0.544451 58 58 58
-0.0560867 0.181137 0.545289 58 58 58
-0.0533708 0.1807 0.544172 59 59 59
-0.0506636 0.18025 0.543002 61 61 61
-0.0479346 0.17967 0.54143 66 66 66
-0.0453628 0.179647 0.541525 60 60 60
-0.0428187 0.179738 0.541951 33 33 33
-0.0397779 0.177622 0.535713 4 4 4
-0.0358442 0.170959 0.515744 1 1 1
-0.0327082 0.167405 0.505137 2 2 2
-0.0304943 0.168382 0.508192 2 2 2
-0.0279519 0.167558 0.5058 2 2 2
-0.0259714 0.170262 0.514052 2 2 2
-0.0233682 0.169021 0.510386 2 2 2
-0.0208455 0.168143 0.507809 2 2 2
-0.0185002 0.168655 0.509417 2 2 2
-0.0164779 0.172705 0.521708 3 3 3
-0.0138578 0.170812 0.516039 3 3 3
-0.0110578 0.165419 0.499785 2 2 2
-0.00871652 0.165822 0.501034 1 1 1
-0.00643514 0.16809 0.507913 2 2 2
-0.00404793 0.168649 0.509619 1 1 1
-0.00166161 0.170941 0.516554 1 1 1
0.000797722 0.174884 0.528469 1 1 1
0.00328772 0.174478 0.527235 2 2 2
0.005522 0.166702 0.503725 1 1 1
0.00788837 0.166398 0.502784 2 2 2
0.0109954 0.17824 0.538537 1 1 1
0.0137835 0.181433 0.548143 8 8 8
0.0159256 0.176457 0.533063 48 48 48
0.0187021 0.178909 0.540414 67 67 67
0.0213015 0.179282 0.541476 68 68 68
0.0237778 0.17865 0.539492 78 78 78
0.0263407 0.178728 0.539645 77 77 77
0.0289098 0.17883 0.539861 70 70 70
0.0314334 0.178657 0.53924 78 78 78
0.0339704 0.17858 0.538899 80 80 80
0.0366149 0.179041 0.540169 78 78 78
0.039261 0.179448 0.541268 74 74 74
0.0418172 0.179419 0.541042 77 77 77
0.0443214 0.179184 0.540184 75 75 75
0.0468901 0.179221 0.540135 66 66 66
0.0493894 0.179002 0.539308 68 68 68
0.0518568 0.178695 0.538203 78 78 78
0.0543701 0.178568 0.537628 73 73 73
0.0569316 0.178603 0.537531 75 75 75
0.0595113 0.17869 0.537577 69 69 69
0.0620405 0.178624 0.537154 71 71 71
0.0646496 0.178785 0.537397 73 73 73
0.0672141 0.178814 0.537234 75 75 75
0.0697281 0.178712 0.536663 82 82 82
0.072291 0.178739 0.536464 78 78 78
0.0750594 0.179254 0.537718 77 77 77
0.0775705 0.179141 0.537072 76 76 76
0.080167 0.179226 0.537006 69 69 69
0.0823465 0.178402 0.534204 66 66 66
0.0847886 0.17818 0.533189 71 71 71
0.0872817 0.178074 0.53251 73 73 73
0.0898097 0.178044 0.53204 84 84 84
0 0 0 0 0 0
0.0834392 0.15655 0.467098 58 58 58
0.0860163 0.157174 0.468579 41 41 41
0.0884071 0.157434 0.468959 35 35 35
0.0904985 0.157161 0.467736 41 41 41
0.0928953 0.157419 0.468077 42 42 42
0.0949616 0.157118 0.466739 46 46 46
0.0967807 0.156432 0.464243 38 38 38
0.0992026 0.156728 0.464648 40 40 40
0.101674 0.157089 0.465225 30 30 30
0.103677 0.156725 0.463638 26 26 26
0.106007 0.156861 0.463515 28 28 28
0.108474 0.157189 0.463938 28 28 28
0.110272 0.156555 0.461508 28 28 28
0.112047 0.155913 0.45904 29 29 29
0.115057 0.156981 0.461589 26 26 26
0.117675 0.157485 0.462453 28 28 28
0.119764 0.157275 0.461206 28 28 28
0.122508 0.157916 0.462433 28 28 28
0.125833 0.159271 0.465726 25 25 25
0.128291 0.159498 0.465701 25 25 25
0.130645 0.159591 0.465265 27 27 27
0.133079 0.159777 0.465081 25 25 25
0.135377 0.159796 0.464398 28 28 28
0.137864 0.160033 0.464338 29 29 29
0.140522 0.160459 0.464808 30 30 30
0.147395 0.165606 0.478916 22 22 22
0.16516 0.182636 0.52727 27 27 27
0.168053 0.182946 0.527261 66 66 66
0.171703 0.184057 0.529549 72 72 72
0.174647 0.184391 0.529588 76 76 76
0.177573 0.184695 0.52954 70 70 70
0.180735 0.185232 0.530159 66 66 66
0.183849 0.185705 0.530595 68 68 68
0.187214 0.186415 0.53171 65 65 65
0.190245 0.186777 0.531844 61 61 61
0.192416 0.186296 0.529594 62 62 62
0.195962 0.187142 0.531137 61 61 61
0.199128 0.187606 0.531618 62 62 62
0.20119 0.187032 0.529188 58 58 58
0.203502 0.186703 0.527491 60 60 60
0.206682 0.187168 0.528075 54 54 54
0.21003 0.187771 0.529093 54 54 54
0.212975 0.188004 0.529112 54 54 54
0.21637 0.188623 0.530268 54 54 54
0.219056 0.188617 0.529722 47 47 47
0.221536 0.188434 0.528743 46 46 46
0.224538 0.188696 0.529074 47 47 47
0.227938 0.189281 0.530379 48 48 48
0.230261 0.188969 0.529236 48 48 48
0.232956 0.188966 0.529033 45 45 45
0.235345 0.188718 0.528215 44 44 44
0.237646 0.188405 0.527291 42 42 42
0.239608 0.187834 0.525717 41 41 41
0.242708 0.188158 0.526724 39 39 39
0.245775 0.188449 0.527714 36 36 36
0.247921 0.188035 0.526804 29 29 29
0.249233 0.187005 0.524236 29 29 29
0.251709 0.186859 0.524221 28 28 28
0.254355 0.186843 0.524635 30 30 30
0.256709 0.186614 0.524523 29 29 29
0.261417 0.188084 0.529255 25 25 25
0 0 0 0 0 0
0 0 0 0 0 0
0 0 0 0 0 0
0 0 0 0 0 0
0 0 0 0 0 0
0 0 0 0 0 0
0 0 0 0 0 0
0 0 0 0 0 0
0 0 0 0 0 0
0 0 0 0 0 0
0 0 0 0 0 0
0 0 0 0 0 0
0 0 0 0 0 0
0 0 0 0 0 0
0 0 0 0 0 0
-0.308844 0.198173 0.564814 9 9 9
-0.306688 0.198584 0.564601 11 11 11
-0.30413 0.198739 0.563691 10 10 10
-0.30142 0.198798 0.562546 13 13 13
-0.296856 0.197623 0.557963 11 11 11
-0.293701 0.197372 0.556046 11 11 11
-0.293779 0.199311 0.560336 12 12 12
-0.290124 0.19873 0.557585 12 12 12
-0.286284 0.198009 0.554505 13 13 13
-0.285379 0.199325 0.557179 15 15 15
-0.283783 0.200179 0.558611 15 15 15
-0.278984 0.198767 0.553785 18 18 18
-0.277697 0.199855 0.555986 20 20 20
-0.275537 0.200331 0.556541 21 21 21
-0.272875 0.200447 0.556162 18 18 18
-0.269625 0.20013 0.554649 19 19 19
-0.26736 0.200545 0.555235 21 21 21
-0.264787 0.200735 0.55527 22 22 22
-0.261785 0.2006 0.554477 25 25 25
-0.259438 0.200971 0.555155 26 26 26
-0.25784 0.201936 0.55755 26 26 26
-0.254861 0.201828 0.557059 23 23 23
-0.251844 0.201688 0.556557 26 26 26
-0.249043 0.20172 0.556604 28 28 28
-0.244351 0.200202 0.552455 28 28 28
-0.242313 0.20085 0.554356 27 27 27
-0.240609 0.201793 0.557148 29 29 29
-0.237854 0.201866 0.557614 31 31 31
-0.232473 0.199685 0.551923 35 35 35
-0.230213 0.200165 0.553652 33 33 33
-0.227004 0.199821 0.553168 37 37 37
-0.223839 0.199508 0.552832 38 38 38
-0.22007 0.198641 0.551017 38 38 38
-0.217247 0.198618 0.551595 39 39 39
-0.214606 0.198762 0.552688 42 42 42
-0.211821 0.198775 0.553465 40 40 40
-0.20835 0.198136 0.552466 42 42 42
-0.205324 0.197907 0.552646 44 44 44
-0.201144 0.196546 0.549689 50 50 50
-0.198166 0.196338 0.549977 50 50 50
-0.195388 0.196324 0.550833 51 51 51
-0.192029 0.195718 0.550044 52 52 52
-0.188563 0.194984 0.548903 52 52 52
-0.185484 0.194634 0.548847 51 51 51
-0.182537 0.194414 0.549165 50 50 50
-0.17951 0.194102 0.549222 51 51 51
-0.176435 0.193726 0.549096 56 56 56
-0.173187 0.193145 0.548383 56 56 56
-0.170007 0.192624 0.547827 58 58 58
-0.16733 0.192664 0.54886 52 52 52
-0.16468 0.192738 0.549979 55 55 55
-0.16135 0.192005 0.548781 55 55 55
-0.158131 0.191382 0.547876 58 58 58
-0.1552 0.191091 0.547903 56 56 56
-0.152528 0.191114 0.548815 60 60 60
-0.149571 0.190775 0.548667 57 57 57
-0.14612 0.189781 0.546614 56 56 56
-0.143356 0.18966 0.547051 61 61 61
-0.14077 0.189774 0.548146 60 60 60
-0.13827 0.19001 0.549576 57 57 57
-0.135646 0.190082 0.550513 58 58 58
-0.132592 0.189542 0.549654 61 61 61
-0.129542 0.188987 0.548729 65 65 65
-0.126913 0.189035 0.549532 63 63 63
-0.122979 0.187099 0.544542 63 63 63
-0.120427 0.187228 0.545531 62 62 62
-0.117545 0.186836 0.544988 60 60 60
-0.11497 0.186926 0.545826 56 56 56
-0.112365 0.186972 0.546515 54 54 54
-0.109586 0.186723 0.546324 55 55 55
-0.107292 0.187307 0.548554 58 58 58
-0.104191 0.186478 0.546623 57 57 57
-0.101295 0.185982 0.545647 57 57 57
-0.0986553 0.185943 0.545992 57 57 57
-0.0963301 0.18651 0.548102 58 58 58
-0.0930361 0.185181 0.544619 55 55 55
-0.0900042 0.184311 0.542467 59 59 59
-0.0874395 0.184376 0.543045 57 57 57
-0.0851157 0.184968 0.545161 52 52 52
-0.0827362 0.185472 0.547006 57 57 57
-0.0802002 0.185647 0.547865 61 61 61
-0.077342 0.185063 0.546468 59 59 59
-0.0744564 0.18437 0.544733 54 54 54
-0.0717456 0.184076 0.54416 54 54 54
-0.0691361 0.184029 0.544304 60 60 60
-0.0665514 0.184047 0.544626 58 58 58
-0.0638585 0.183755 0.544017 53 53 53
-0.0611512 0.183396 0.543195 53 53 53
-0.0586788 0.18374 0.544444 56 56 56
-0.0560943 0.183749 0.544687 56 56 56
-0.0534221 0.183457 0.544028 58 58 58
-0.0507731 0.183219 0.543517 60 60 60
-0.0481521 0.183063 0.543234 61 61 61
-0.0454021 0.182371 0.54135 56 56 56
-0.0427815 0.182146 0.540842 49 49 49
-0.0404619 0.183257 0.544288 18 18 18
-0.0362588 0.175407 0.521106 2 2 2
-0.0332548 0.172634 0.51299 2 2 2
-0.0308745 0.172916 0.513942 2 2 2
-0.0282626 0.17184 0.510843 2 2 2
-0.025551 0.169898 0.505165 2 2 2
-0.023674 0.173678 0.516489 2 2 2
-0.0208 0.170172 0.506137 2 2 2
-0.0186427 0.172381 0.512775 2 2 2
-0.0165694 0.176144 0.524028 2 2 2
-0.0141121 0.176431 0.524932 3 3 3
-0.0116397 0.17661 0.525509 2 2 2
-0.00903938 0.17442 0.519026 1 1 1
-0.00647716 0.171604 0.510673 1 1 1
-0.0041075 0.173575 0.516556 1 1 1
-0.0016873 0.176064 0.523972 3 3 3
0.000807824 0.179628 0.53458 1 1 1
0.00332097 0.178759 0.531989 1 1 1
0 0 0 0 0 0
0.00844762 0.180739 0.537843 2 2 2
0.0111503 0.183334 0.54553 11 11 11
0.0135054 0.180311 0.536494 45 45 45
0.0160673 0.180569 0.537213 69 69 69
0.0187088 0.18153 0.540013 71 71 71
0.0212712 0.181584 0.540105 72 72 72
0.0237734 0.181167 0.538789 74 74 74
0.0264267 0.181872 0.5408 75 75 75
0.0290028 0.181967 0.540987 72 72 72
0.0314734 0.181439 0.539313 70 70 70
0.0338799 0.180649 0.536849 79 79 79
0.0366375 0.181709 0.539878 80 80 80
0.0392913 0.182151 0.541055 75 75 75
0.0418417 0.182088 0.540725 69 69 69
0.0443366 0.181805 0.539729 69 69 69
0.0469103 0.181859 0.539723 69 69 69
0.049547 0.182138 0.540375 71 71 71
0.0520094 0.181781 0.539127 77 77 77
0.0545104 0.181586 0.53835 77 77 77
0.0570153 0.18142 0.53765 75 75 75
0.0595581 0.181385 0.537322 71 71 71
0.0621497 0.181494 0.537412 70 70 70
0.0648339 0.181855 0.538233 71 71 71
0.0674607 0.182034 0.5385 75 75 75
0.0700521 0.182107 0.538443 76 76 76
0.0725248 0.181878 0.537477 74 74 74
0.0749924 0.181651 0.536507 75 75 75
0.0774093 0.181321 0.535217 69 69 69
0.0807498 0.183107 0.540155 63 63 63
0.0830178 0.182425 0.537796 70 70 70
0.0848966 0.180955 0.533102 67 67 67
0.0874491 0.180964 0.532754 78 78 78
0.0900548 0.18108 0.532704 77 77 77
0.089919 0.175829 0.516859 52 52 52
0.0848125 0.161399 0.474065 39 39 39
0.0859815 0.159354 0.467669 40 40 40
0.0881962 0.159301 0.46711 43 43 43
0.0905446 0.159487 0.467234 39 39 39
0.0932248 0.160234 0.468984 32 32 32
0.0956263 0.160478 0.469242 29 29 29
0.0979076 0.160513 0.468874 30 30 30
0.100554 0.161132 0.470192 28 28 28
0.102324 0.16035 0.467404 28 28 28
0.104322 0.159953 0.465725 26 26 26
0.106539 0.1599 0.465033 26 26 26
0.109033 0.160255 0.465511 27 27 27
0.110918 0.159721 0.463388 24 24 24
0.112463 0.158728 0.45992 29 29 29
0.115185 0.159401 0.461268 28 28 28
0.118466 0.160808 0.464713 25 25 25
0.120995 0.16116 0.465083 25 25 25
0.123481 0.161444 0.465239 27 27 27
0.125512 0.161132 0.463665 28 28 28
0.128808 0.162428 0.466695 26 26 26
0.130874 0.162155 0.465197 26 26 26
0.132903 0.161845 0.463585 28 28 28
0.134919 0.16153 0.461947 32 32 32
0.137028 0.161336 0.460644 41 41 41
0.140569 0.162805 0.464077 45 45 45
0.144455 0.164621 0.468471 39 39 39
0.164143 0.184103 0.523031 25 25 25
0.168366 0.185904 0.527252 61 61 61
0.171961 0.186967 0.529362 66 66 66
0.174786 0.187173 0.529038 72 72 72
0.177698 0.187464 0.528955 66 66 66
0.182584 0.1898 0.534635 60 60 60
0.184587 0.189114 0.531804 58 58 58
0.18746 0.189326 0.531515 59 59 59
0.190045 0.189245 0.530419 61 61 61
0.192901 0.189433 0.530096 61 61 61
0.195817 0.189674 0.529945 59 59 59
0.199462 0.190605 0.531749 57 57 57
0.202113 0.190574 0.530898 57 57 57
0.204308 0.190119 0.528907 55 55 55
0.207157 0.190278 0.528668 53 53 53
0.209902 0.190338 0.5282 56 56 56
0.212749 0.190486 0.528031 53 53 53
0.215876 0.19088 0.528595 51 51 51
0.218441 0.190773 0.527828 46 46 46
0.220868 0.190549 0.526802 46 46 46
0.223808 0.190768 0.527066 45 45 45
0.226819 0.191042 0.527549 43 43 43
0.229175 0.190764 0.526574 46 46 46
0.232638 0.191403 0.528204 44 44 44
0.235535 0.191567 0.528596 40 40 40
0.237794 0.191215 0.527633 41 41 41
0.240223 0.191005 0.527138 38 38 38
0.242502 0.190682 0.526405 36 36 36
0.245792 0.191153 0.527936 29 29 29
0.247899 0.190704 0.526995 32 32 32
0.249698 0.190029 0.525502 31 31 31
0.251625 0.189465 0.524383 31 31 31
0.254146 0.189356 0.524589 28 28 28
0.256795 0.189343 0.525127 27 27 27
0 0 0 0 0 0
0 0 0 0 0 0
0 0 0 0 0 0
0 0 0 0 0 0
0 0 0 0 0 0
0 0 0 0 0 0
0 0 0 0 0 0
0 0 0 0 0 0
0 0 0 0 0 0
0 0 0 0 0 0
0 0 0 0 0 0
0 0 0 0 0 0
0 0 0 0 0 0
0 0 0 0 0 0
0 0 0 0 0 0
0 0 0 0 0 0
-0.309401 0.201326 0.566741 9 9 9
-0.306579 0.201308 0.565296 9 9 9
-0.303011 0.200796 0.562496 9 9 9
-0.299518 0.200324 0.559853 10 10 10
-0.295013 0.199161 0.555329 11 11 11
-0.294457 0.200667 0.55829 12 12 12
-0.294298 0.202475 0.56212 11 11 11
-0.289488 0.201086 0.557122 12 12 12
-0.285803 0.20046 0.5543 14 14 14
-0.283664 0.200916 0.554527 15 15 15
-0.281728 0.201527 0.55523 14 14 14
-0.279878 0.202212 0.55619 16 16 16
-0.277414 0.202463 0.556012 18 18 18
-0.275199 0.202903 0.556411 18 18 18
-0.271347 0.202132 0.553556 18 18 18
-0.268569 0.202153 0.552939 18 18 18
-0.266776 0.202925 0.554439 19 19 19
-0.264504 0.203344 0.555044 21 21 21
-0.261352 0.203089 0.553876 24 24 24
-0.259097 0.203533 0.554688 25 25 25
-0.256894 0.204027 0.555709 23 23 23
-0.254119 0.204074 0.555584 23 23 23
-0.251607 0.204335 0.556118 27 27 27
-0.248695 0.204274 0.555851 26 26 26
-0.244823 0.203413 0.553486 25 25 25
-0.241396 0.202907 0.552158 27 27 27
-0.239274 0.203498 0.553893 27 27 27
-0.236704 0.203719 0.554691 32 32 32
-0.232104 0.202175 0.550757 31 31 31
-0.229289 0.202168 0.551076 32 32 32
-0.226965 0.2026 0.552657 33 33 33
-0.223219 0.201756 0.550825 37 37 37
-0.220329 0.201675 0.551133 37 37 37
-0.217431 0.201585 0.551472 40 40 40
-0.214795 0.201738 0.552529 41 41 41
-0.211817 0.20157 0.552759 39 39 39
-0.208279 0.200856 0.551533 44 44 44
-0.204517 0.199905 0.549689 45 45 45
-0.201748 0.199912 0.550512 47 47 47
-0.198817 0.199756 0.550916 47 47 47
-0.195764 0.199472 0.550994 49 49 49
-0.192323 0.198778 0.549957 50 50 50
-0.188993 0.19818 0.549197 48 48 48
-0.185578 0.197475 0.54815 50 50 50
-0.182542 0.197157 0.548182 50 50 50
-0.179521 0.196846 0.548239 55 55 55
-0.176487 0.196511 0.548228 53 53 53
-0.173436 0.196146 0.548131 53 53 53
-0.170548 0.195958 0.548523 49 49 49
-0.16794 0.196089 0.549803 49 49 49
-0.16505 0.195891 0.550151 54 54 54
-0.16137 0.194733 0.547787 58 58 58
-0.158252 0.194224 0.547232 56 56 56
-0.155495 0.19415 0.547885 56 56 56
-0.152925 0.194308 0.549181 57 57 57
-0.150106 0.194152 0.549572 50 50 50
-0.147028 0.193649 0.54896 58 58 58
-0.143706 0.192799 0.547344 60 60 60
-0.140755 0.192426 0.547056 61 61 61
-0.138415 0.192888 0.549127 59 59 59
-0.135762 0.192924 0.549965 57 57 57
-0.132645 0.192288 0.548868 60 60 60
-0.129759 0.191969 0.548649 58 58 58
-0.126841 0.191588 0.548232 63 63 63
-0.124077 0.191428 0.548426 58 58 58
-0.120443 0.189889 0.544645 63 63 63
-0.11757 0.189508 0.544159 57 57 57
-0.115058 0.189704 0.545307 58 58 58
-0.112329 0.189544 0.545416 61 61 61
-0.109677 0.189509 0.545862 59 59 59
-0.107075 0.189561 0.54654 56 56 56
-0.104357 0.189405 0.546601 55 55 55
-0.101656 0.189273 0.546712 58 58 58
-0.0995127 0.1902 0.549863 56 56 56
-0.0968216 0.190101 0.550035 55 55 55
-0.0935221 0.188769 0.546618 57 57 57
-0.0903919 0.187712 0.543973 57 57 57
-0.0876598 0.187443 0.543593 56 56 56
-0.0852027 0.187764 0.544907 53 53 53
-0.0830161 0.18872 0.548051 53 53 53
-0.0802564 0.188393 0.547455 59 59 59
-0.0775585 0.188194 0.547214 57 57 57
-0.0746964 0.187569 0.545717 52 52 52
-0.0717518 0.186683 0.543447 56 56 56
-0.0690593 0.186413 0.54295 60 60 60
-0.0664446 0.186339 0.543012 58 58 58
-0.0638926 0.186442 0.543576 58 58 58
-0.0615672 0.187243 0.546162 53 53 53
-0.0587186 0.186453 0.544096 54 54 54
-0.0560843 0.186302 0.543881 54 54 54
-0.0533962 0.18595 0.543064 53 53 53
-0.0508646 0.186134 0.543801 58 58 58
-0.048314 0.186265 0.544373 54 54 54
-0.0455308 0.185463 0.542205 60 60 60
-0.0428583 0.185043 0.541141 62 62 62
-0.0403342 0.18525 0.541903 45 45 45
-0.0378315 0.185592 0.543045 12 12 12
-0.0355219 0.186999 0.547299 1 1 1
-0.0318573 0.180933 0.529664 1 1 1
-0.028829 0.177751 0.520459 1 1 1
-0.02661 0.179431 0.525477 2 2 2
0 0 0 0 0 0
-0.0208221 0.172752 0.506081 1 1 1
-0.0186731 0.175093 0.513011 3 3 3
-0.0166141 0.179106 0.52483 1 1 1
-0.0140868 0.178594 0.523384 2 2 2
-0.0113772 0.175058 0.513065 2 2 2
-0.00903037 0.176699 0.51791 1 1 1
-0.00662946 0.178112 0.522079 2 2 2
-0.00419511 0.179774 0.526968 1 1 1
-0.00171015 0.180961 0.53046 1 1 1
0.000813851 0.183516 0.53795 1 1 1
0.00338282 0.184653 0.541274 0 0 0
0.00601374 0.186733 0.547356 3 3 3
0.00850174 0.184458 0.540664 21 21 21
0.0109922 0.183279 0.537173 56 56 56
0.0135302 0.183186 0.536857 64 64 64
0.0160972 0.183452 0.537587 72 72 72
0.0186947 0.183947 0.538976 73 73 73
0.0212778 0.184198 0.53964 73 73 73
0.0238983 0.184684 0.540984 71 71 71
0.0264683 0.184723 0.54101 71 71 71
0.0290187 0.18463 0.540639 70 70 70
0.0315118 0.184218 0.539324 73 73 73
0.0339731 0.183696 0.537677 74 74 74
0.0366354 0.184257 0.53919 79 79 79
0.0392938 0.184728 0.540427 71 71 71
0.0418292 0.184597 0.539895 66 66 66
0.044539 0.185207 0.541517 60 60 60
0.0471003 0.185166 0.541226 65 65 65
0.0495532 0.184726 0.539756 72 72 72
0.0520897 0.184625 0.539266 69 69 69
0.0546367 0.184569 0.538898 67 67 67
0.0570933 0.184226 0.53768 66 66 66
0.0596803 0.184316 0.537711 66 66 66
0.0622729 0.184415 0.537756 71 71 71
0.064987 0.184851 0.538772 73 73 73
0.0677667 0.185434 0.5402 70 70 70
0.070393 0.18557 0.540312 72 72 72
0.073008 0.185667 0.540297 71 71 71
0.0750696 0.184399 0.536295 67 67 67
0.0782432 0.185855 0.540203 63 63 63
0.0799924 0.183943 0.534306 69 69 69
0.0825279 0.183902 0.533832 68 68 68
0.0851466 0.184043 0.53387 72 72 72
0.0877782 0.184203 0.533947 76 76 76
0.0903969 0.184327 0.533905 75 75 75
0.0921454 0.182719 0.528831 66 66 66
0.0862869 0.166517 0.481544 31 31 31
0.0869246 0.16337 0.472041 30 30 30
0.0882909 0.161718 0.466853 47 47 47
0.0904892 0.161634 0.46618 39 39 39
0.0931752 0.162404 0.467954 31 31 31
0.0960661 0.163486 0.470605 27 27 27
0.0985843 0.163898 0.471308 26 26 26
0.100808 0.163814 0.470564 27 27 27
0.102452 0.162811 0.467169 26 26 26
0.104302 0.162174 0.464811 27 27 27
0.10695 0.162777 0.465992 27 27 27
0.109556 0.163291 0.466898 26 26 26
0.111832 0.163304 0.466351 25 25 25
0.113387 0.162284 0.46284 28 28 28
0.116011 0.162805 0.46371 25 25 25
0.118723 0.163426 0.464844 25 25 25
0.121015 0.163457 0.464282 26 26 26
0.123517 0.163765 0.464488 31 31 31
0.126235 0.164343 0.465445 36 36 36
0.127832 0.163467 0.462268 45 45 45
0.130803 0.164348 0.464046 50 50 50
0.13274 0.163922 0.462121 47 47 47
0.134712 0.163553 0.460344 38 38 38
0.136828 0.163368 0.459082 56 56 56
0.13937 0.16369 0.459234 53 53 53
0.142261 0.164404 0.460474 56 56 56
0 0 0 0 0 0
0.168832 0.189044 0.527717 55 55 55
0.171911 0.189544 0.528224 66 66 66
0.174939 0.189974 0.528532 65 65 65
0.17778 0.190191 0.528251 62 62 62
0.181036 0.190841 0.529174 58 58 58
0.18516 0.192372 0.532545 55 55 55
0.18771 0.192247 0.531342 51 51 51
0.190176 0.192043 0.52994 53 53 53
0.192917 0.192117 0.529332 56 56 56
0.196084 0.192607 0.529897 53 53 53
0.199028 0.192868 0.52986 59 59 59
0.202166 0.193308 0.530352 58 58 58
0.204931 0.193385 0.529885 52 52 52
0.20737 0.193155 0.528626 50 50 50
0.209804 0.192927 0.527422 51 51 51
0.212621 0.193052 0.527238 50 50 50
0.215598 0.193319 0.527495 45 45 45
0.218035 0.1931 0.526489 46 46 46
0.22054 0.192945 0.525723 45 45 45
0.223388 0.193092 0.52584 41 41 41
0.226626 0.193567 0.526921 40 40 40
0.229933 0.19409 0.528199 45 45 45
0.232774 0.194212 0.528457 43 43 43
0.23503 0.193848 0.527465 41 41 41
0.237723 0.193849 0.527539 39 39 39
0.240133 0.193622 0.52706 35 35 35
0.242733 0.193552 0.527082 31 31 31
0.244394 0.192742 0.525161 31 31 31
0.247311 0.19293 0.526025 30 30 30
0.250582 0.193387 0.527695 28 28 28
0.25289 0.193099 0.527398 26 26 26
0 0 0 0 0 0
0 0 0 0 0 0
0 0 0 0 0 0
0 0 0 0 0 0
0 0 0 0 0 0
0 0 0 0 0 0
0 0 0 0 0 0
0 0 0 0 0 0
0 0 0 0 0 0
0 0 0 0 0 0
0 0 0 0 0 0
0 0 0 0 0 0
0 0 0 0 0 0
0 0 0 0 0 0
0 0 0 0 0 0
0 0 0 0 0 0
0 0 0 0 0 0
0 0 0 0 0 0
0 0 0 0 0 0
0 0 0 0 0 0
0 0 0 0 0 0
-0.296633 0.20115 0.555335 10 10 10
-0.295093 0.201981 0.556337 10 10 10
-0.294278 0.203329 0.558792 10 10 10
-0.292858 0.204282 0.560189 10 10 10
-0.290624 0.204678 0.560103 11 11 11
-0.28558 0.203084 0.554626 12 12 12
-0.282221 0.20267 0.552433 15 15 15
-0.280443 0.203394 0.553395 14 14 14
-0.279114 0.20446 0.555336 13 13 13
-0.277272 0.205169 0.556357 15 15 15
-0.274239 0.205003 0.55506 18 18 18
-0.271692 0.205199 0.554809 18 18 18
-0.268822 0.205153 0.553965 18 18 18
-0.268195 0.206837 0.55785 19 19 19
-0.265979 0.207317 0.558552 21 21 21
-0.262057 0.206464 0.555731 22 22 22
-0.258492 0.205877 0.5537 24 24 24
-0.256175 0.206282 0.554408 21 21 21
-0.2538 0.206648 0.555084 21 21 21
-0.250719 0.206442 0.554295 24 24 24
-0.247854 0.206409 0.554048 24 24 24
-0.244713 0.206145 0.553253 22 22 22
-0.24102 0.205403 0.551249 24 24 24
-0.237618 0.204896 0.549949 28 28 28
-0.234679 0.20478 0.54977 29 29 29
-0.23195 0.204846 0.550153 26 26 26
-0.228621 0.204379 0.549171 30 30 30
-0.225545 0.204128 0.548837 30 30 30
-0.223425 0.204747 0.550908 32 32 32
-0.220408 0.204549 0.550845 35 35 35
-0.217408 0.204362 0.550867 34 34 34
-0.214581 0.204335 0.551377 38 38 38
-0.212036 0.204579 0.55267 38 38 38
-0.209094 0.204442 0.552982 43 43 43
-0.205864 0.204016 0.552553 45 45 45
-0.202622 0.203567 0.552097 42 42 42
-0.198734 0.202445 0.549849 46 46 46
-0.195712 0.202188 0.54997 47 47 47
-0.193159 0.202414 0.551435 48 48 48
-0.189464 0.201432 0.549626 46 46 46
-0.186563 0.20128 0.550091 49 49 49
-0.182708 0.200076 0.547693 53 53 53
-0.180013 0.200127 0.548733 51 51 51
-0.177192 0.200036 0.549389 47 47 47
-0.173817 0.199307 0.548296 46 46 46
-0.170689 0.198843 0.547923 50 50 50
-0.1679 0.198764 0.548608 49 49 49
-0.164856 0.198378 0.548435 55 55 55
-0.16128 0.197326 0.54641 57 57 57
-0.158326 0.197013 0.546415 54 54 54
-0.155655 0.197047 0.547371 56 56 56
-0.153115 0.197252 0.548789 54 54 54
-0.150384 0.197213 0.549514 54 54 54
-0.147472 0.196931 0.549548 54 54 54
-0.144139 0.196066 0.54793 58 58 58
-0.141347 0.195918 0.548297 58 58 58
-0.138603 0.195832 0.548819 57 57 57
-0.135865 0.19575 0.549334 56 56 56
-0.132725 0.195075 0.548162 57 57 57
-0.129532 0.194294 0.546667 56 56 56
-0.126716 0.194057 0.54668 58 58 58
-0.123731 0.193545 0.545896 57 57 57
-0.120505 0.192624 0.543935 61 61 61
-0.1178 0.192515 0.544244 59 59 59
-0.115364 0.19285 0.545791 58 58 58
-0.112622 0.192678 0.545882 57 57 57
-0.109847 0.192438 0.545762 54 54 54
-0.107158 0.192342 0.546029 52 52 52
-0.10453 0.192354 0.546585 54 54 54
-0.1019 0.192361 0.547107 56 56 56
-0.0992766 0.192383 0.547654 57 57 57
-0.0964079 0.191917 0.546793 56 56 56
-0.0937258 0.191807 0.546926 58 58 58
-0.0907954 0.191168 0.545533 58 58 58
-0.088047 0.190885 0.545138 57 57 57
-0.0855907 0.191238 0.54654 52 52 52
-0.0827867 0.190812 0.5457 52 52 52
-0.0803009 0.191115 0.54693 57 57 57
-0.0775603 0.190812 0.546409 55 55 55
-0.0746941 0.190167 0.544895 56 56 56
-0.0718852 0.189628 0.543664 58 58 58
-0.0691782 0.189326 0.5431 61 61 61
-0.0668031 0.189946 0.545163 57 57 57
-0.0644373 0.190642 0.547436 55 55 55
-0.0614211 0.189392 0.544106 52 52 52
-0.0588258 0.189387 0.544337 52 52 52
-0.0561737 0.18919 0.544003 55 55 55
-0.0534998 0.188898 0.543382 51 51 51
-0.0509943 0.1892 0.544458 53 53 53
-0.0483847 0.189128 0.544446 62 62 62
-0.0456735 0.188628 0.543189 64 64 64
-0.0429585 0.188051 0.541699 63 63 63
-0.040351 0.187901 0.541428 58 58 58
-0.0377771 0.187898 0.541569 43 43 43
-0.0350907 0.187294 0.539965 14 14 14
-0.0327509 0.188591 0.543832 2 2 2
-0.0299111 0.186984 0.539315 2 2 2
-0.0260863 0.178342 0.514492 2 2 2
-0.0237969 0.179496 0.517913 2 2 2
-0.0208687 0.175543 0.506586 1 1 1
-0.0186066 0.176893 0.510555 0 0 0
-0.0166249 0.181711 0.524526 2 2 2
-0.0140364 0.180425 0.520871 2 2 2
-0.0111853 0.174495 0.503794 2 2 2
-0.0088448 0.175471 0.50665 1 1 1
-0.00666484 0.181549 0.524227 2 2 2
-0.0042702 0.185532 0.535749 2 2 2
-0.00172418 0.184978 0.53416 2 2 2
0.000814895 0.186303 0.537986 2 2 2
0.0034363 0.190176 0.549163 7 7 7
0.00594399 0.187129 0.54035 36 36 36
0.00845843 0.186067 0.537256 62 62 62
0.0110212 0.186314 0.537933 67 67 67
0.0135731 0.186318 0.537901 69 69 69
0.0161353 0.18644 0.538199 76 76 76
0.0187176 0.18673 0.538972 73 73 73
0.0213334 0.187244 0.540382 73 73 73
0.0238948 0.18722 0.540232 72 72 72
0.0264701 0.1873 0.54037 67 67 67
0.0290385 0.187322 0.54033 67 67 67
0.0314752 0.186559 0.538016 71 71 71
0.0339625 0.186189 0.536825 73 73 73
0.0367448 0.187374 0.540109 74 74 74
0.0392972 0.187309 0.539776 71 71 71
0.0418553 0.187277 0.53953 63 63 63
0.0444476 0.187393 0.539697 64 64 64
0.04715 0.187935 0.541081 65 65 65
0.0496368 0.187606 0.539944 70 70 70
0.0522409 0.187732 0.540104 65 65 65
0.0546524 0.187186 0.538319 69 69 69
0.0572018 0.187139 0.537961 70 70 70
0.0598479 0.1874 0.538471 66 66 66
0.0625094 0.187685 0.539039 69 69 69
0.0650802 0.187687 0.538778 73 73 73
0.0678414 0.188216 0.540019 74 74 74
0.0705683 0.188615 0.54087 71 71 71
0.0730787 0.188428 0.540025 68 68 68
0.0756944 0.188515 0.539954 61 61 61
0.0775097 0.18667 0.534333 69 69 69
0.0801496 0.186864 0.534541 63 63 63
0.0829452 0.187398 0.535703 70 70 70
0.0853997 0.187153 0.53462 69 69 69
0.0880908 0.187425 0.535001 73 73 73
0.0905991 0.187305 0.534242 76 76 76
0.0929511 0.186876 0.53259 76 76 76
0 0 0 0 0 0
0.0867721 0.165348 0.47043 27 27 27
0.0886112 0.164558 0.467758 29 29 29
0.0906964 0.164253 0.466452 30 30 30
0.0931987 0.1647 0.467264 29 29 29
0.0959459 0.165548 0.469196 26 26 26
0.098194 0.165516 0.468614 25 25 25
0.100122 0.164958 0.466529 26 26 26
0.10234 0.164892 0.46582 25 25 25
0.104248 0.164339 0.46372 25 25 25
0.106128 0.163768 0.461556 27 27 27
0.109936 0.166134 0.467648 23 23 23
0.112381 0.166384 0.467758 23 23 23
0.114429 0.166049 0.466208 25 25 25
0.11653 0.165803 0.464893 26 26 26
0.118242 0.165024 0.46207 42 42 42
0.120361 0.164831 0.460881 49 49 49
0.122853 0.165146 0.461093 58 58 58
0.125697 0.165915 0.462557 46 46 46
0.127984 0.165934 0.461912 62 62 62
0.128643 0.163878 0.455488 59 59 59
0.132701 0.166149 0.461077 55 55 55
0.134834 0.165974 0.45986 41 41 41
0.137437 0.166374 0.460227 45 45 45
0.14067 0.16751 0.462617 34 34 34
0.143639 0.168301 0.464038 33 33 33
0 0 0 0 0 0
0.169456 0.192377 0.528671 45 45 45
0.172255 0.19256 0.5283 61 61 61
0.175474 0.193201 0.529185 64 64 64
0.177993 0.193063 0.527945 62 62 62
0.180636 0.193062 0.527091 56 56 56
0.185729 0.195643 0.533289 55 55 55
0.188325 0.195556 0.532224 51 51 51
0.190874 0.195423 0.531061 51 51 51
0.193202 0.195072 0.52933 50 50 50
0.195391 0.194591 0.527286 52 52 52
0.1986 0.195125 0.528027 53 53 53
0.202064 0.195893 0.529436 51 51 51
0.20502 0.196155 0.529516 48 48 48
0.207582 0.196038 0.528624 49 49 49
0.20996 0.195752 0.527328 46 46 46
0.212704 0.19581 0.527016 44 44 44
0.215631 0.196033 0.527206 49 49 49
0.218321 0.196037 0.526868 48 48 48
0.220609 0.195686 0.525637 39 39 39
0.223669 0.196019 0.526312 37 37 37
0.226705 0.196323 0.526978 40 40 40
0.229715 0.196598 0.527631 39 39 39
0.232626 0.196783 0.528114 39 39 39
0.234947 0.19647 0.527332 38 38 38
0.237259 0.196157 0.526617 35 35 35
0.240174 0.196344 0.527317 30 30 30
0.241509 0.19525 0.524644 27 27 27
0.243449 0.194663 0.523402 34 34 34
0.24613 0.194675 0.523836 29 29 29
0.250685 0.196153 0.528287 26 26 26
0.253392 0.196169 0.528867 24 24 24
0 0 0 0 0 0
0 0 0 0 0 0
0 0 0 0 0 0
0 0 0 0 0 0
0 0 0 0 0 0
0 0 0 0 0 0
0 0 0 0 0 0
0 0 0 0 0 0
0 0 0 0 0 0
0 0 0 0 0 0
0 0 0 0 0 0
0 0 0 0 0 0
0 0 0 0 0 0
0 0 0 0 0 0
0 0 0 0 0 0
0 0 0 0 0 0
0 0 0 0 0 0
0 0 0 0 0 0
0 0 0 0 0 0
0 0 0 0 0 0
0 0 0 0 0 0
0 0 0 0 0 0
0 0 0 0 0 0
0 0 0 0 0 0
-0.292315 0.206695 0.559997 10 10 10
-0.289358 0.206578 0.558484 11 11 11
-0.285492 0.205802 0.555246 13 13 13
-0.280019 0.203843 0.548876 13 13 13
-0.280045 0.205886 0.553338 12 12 12
-0.279178 0.207308 0.556164 13 13 13
-0.276523 0.207417 0.555519 13 13 13
-0.274445 0.207966 0.556104 15 15 15
-0.273013 0.209021 0.558098 18 18 18
-0.271828 0.210289 0.560712 17 17 17
-0.27029 0.211307 0.562716 17 17 17
-0.267724 0.211535 0.562678 18 18 18
-0.262785 0.209873 0.557683 20 20 20
-0.258218 0.208475 0.553467 21 21 21
-0.255706 0.208723 0.553692 21 21 21
-0.253909 0.209568 0.555568 21 21 21
-0.250541 0.20912 0.554089 22 22 22
-0.247326 0.208791 0.552997 21 21 21
-0.244386 0.208689 0.552581 23 23 23
-0.241452 0.20859 0.552244 24 24 24
-0.237345 0.207463 0.549259 27 27 27
-0.235162 0.208012 0.550781 29 29 29
-0.23213 0.207813 0.550396 30 30 30
-0.229501 0.207975 0.551036 29 29 29
-0.226827 0.208099 0.551643 30 30 30
-0.224258 0.208325 0.552586 31 31 31
-0.221023 0.207929 0.551942 32 32 32
-0.217586 0.207331 0.550821 36 36 36
-0.21488 0.207422 0.551588 33 33 33
-0.212543 0.207878 0.553379 36 36 36
-0.209885 0.208026 0.554403 38 38 38
-0.206298 0.207246 0.552998 43 43 43
-0.201613 0.205327 0.548587 40 40 40
-0.19835 0.204821 0.547981 44 44 44
-0.195597 0.204837 0.548801 46 46 46
-0.192871 0.20488 0.549725 48 48 48
-0.191281 0.20615 0.553971 41 41 41
-0.187748 0.205332 0.552629 49 49 49
-0.184233 0.204509 0.551283 51 51 51
-0.1807 0.203642 0.549823 48 48 48
-0.177806 0.203478 0.550269 44 44 44
-0.174455 0.202778 0.549266 46 46 46
-0.170981 0.201911 0.547806 52 52 52
-0.167912 0.201502 0.547584 55 55 55
-0.165079 0.201367 0.548102 50 50 50
-0.161778 0.200646 0.547017 51 51 51
-0.158544 0.199986 0.546085 53 53 53
-0.155853 0.200001 0.546981 51 51 51
-0.153303 0.200199 0.54837 49 49 49
-0.150788 0.200451 0.549897 54 54 54
-0.147849 0.200139 0.54986 52 52 52
-0.14477 0.199621 0.549241 52 52 52
-0.14129 0.198521 0.546996 57 57 57
-0.138806 0.198804 0.548545 52 52 52
-0.135894 0.198473 0.548381 52 52 52
-0.132575 0.197524 0.546487 54 54 54
-0.129331 0.196649 0.544772 56 56 56
-0.126374 0.196183 0.544166 57 57 57
-0.123901 0.196464 0.545614 57 57 57
-0.120856 0.19583 0.5445 53 53 53
-0.118263 0.195918 0.545373 56 56 56
-0.115673 0.196015 0.546251 58 58 58
-0.112842 0.195697 0.545956 52 52 52
-0.11015 0.195611 0.546286 52 52 52
-0.107539 0.19567 0.547001 55 55 55
-0.10471 0.195324 0.546566 53 53 53
-0.101736 0.194683 0.545283 54 54 54
-0.0988285 0.194137 0.544248 58 58 58
-0.0962929 0.194313 0.545217 55 55 55
-0.0937804 0.194547 0.54633 53 53 53
-0.0910595 0.194349 0.546215 57 57 57
-0.088337 0.194137 0.54604 57 57 57
-0.0855637 0.193796 0.545486 54 54 54
-0.0829713 0.193856 0.546044 52 52 52
-0.0800267 0.19307 0.544203 55 55 55
-0.0773336 0.192859 0.543963 57 57 57
-0.0746358 0.192621 0.54363 54 54 54
-0.0719655 0.192439 0.543441 55 55 55
-0.0697146 0.193407 0.546486 56 56 56
-0.0671571 0.193567 0.547234 53 53 53
-0.0643646 0.193035 0.546012 49 49 49
-0.0615523 0.192396 0.544472 53 53 53
-0.058875 0.192142 0.544005 54 54 54
-0.0561889 0.191833 0.543372 53 53 53
-0.0535826 0.191781 0.54345 52 52 52
-0.0510316 0.191931 0.544091 53 53 53
-0.0484789 0.192091 0.544745 59 59 59
-0.0458992 0.192155 0.545119 59 59 59
-0.0431575 0.191509 0.543463 58 58 58
-0.0403983 0.190697 0.541325 57 57 57
-0.037788 0.190526 0.540993 53 53 53
-0.0352603 0.190777 0.541848 48 48 48
-0.0326934 0.190838 0.542154 27 27 27
-0.0301371 0.190977 0.54267 6 6 6
-0.0274568 0.190282 0.540808 2 2 2
-0.0243301 0.186031 0.528823 2 2 2
-0.0213643 0.182173 0.51794 1 1 1
-0.0189471 0.182596 0.519221 1 1 1
-0.016936 0.187646 0.53365 1 1 1
-0.0143338 0.186772 0.531224 2 2 2
-0.0115715 0.182992 0.52052 2 2 2
-0.00896104 0.180212 0.51265 2 2 2
-0.00672537 0.185707 0.528311 2 2 2
-0.00430192 0.18947 0.539038 1 1 1
-0.00173781 0.188994 0.537695 6 6 6
0.000824936 0.191181 0.543919 23 23 23
0.00339245 0.190321 0.541463 49 49 49
0.00593119 0.189284 0.538496 67 67 67
0.00847635 0.189015 0.537704 65 65 65
0.0110771 0.189823 0.539965 66 66 66
0.0136506 0.189948 0.540276 70 70 70
0.0162275 0.190074 0.540577 74 74 74
0.0188147 0.190269 0.541065 70 70 70
0.021315 0.189644 0.539212 70 70 70
0.0238988 0.189817 0.539618 68 68 68
0.0264582 0.18978 0.539418 65 65 65
0.0290352 0.189866 0.539554 68 68 68
0.0316178 0.189971 0.539736 71 71 71
0.0341769 0.18993 0.539492 67 67 67
0.0366384 0.18939 0.537821 70 70 70
0.0393642 0.190198 0.539963 65 65 65
0.041993 0.190466 0.540565 61 61 61
0.0443932 0.189727 0.538294 63 63 63
0.0471225 0.190398 0.540014 69 69 69
0.0498535 0.191006 0.541542 66 66 66
0.052289 0.190478 0.539837 64 64 64
0.0548446 0.190416 0.539441 64 64 64
0.0572316 0.189801 0.537465 70 70 70
0.0599311 0.19023 0.538435 75 75 75
0.0626321 0.190629 0.539304 69 69 69
0.0653057 0.190916 0.539842 71 71 71
0.0676887 0.190364 0.537995 70 70 70
0.0700603 0.189822 0.536161 66 66 66
0.0728343 0.190369 0.537393 60 60 60
0.0751213 0.18965 0.535034 69 69 69
0.0779899 0.190398 0.536799 64 64 64
0.0805828 0.190447 0.536576 65 65 65
0.0831301 0.190388 0.536035 67 67 67
0.0856609 0.190296 0.535384 69 69 69
0.0881835 0.190192 0.534683 77 77 77
0.0906653 0.190008 0.533742 74 74 74
0.0930397 0.189616 0.532199 75 75 75
0.0934255 0.1853 0.519639 33 33 33
0.0870009 0.168054 0.470856 23 23 23
0.0889701 0.167488 0.468833 25 25 25
0.0911214 0.167283 0.467811 26 26 26
0.0937513 0.167946 0.469196 22 22 22
0.0959232 0.167776 0.468239 25 25 25
0.0977826 0.16708 0.4658 22 22 22
0.100279 0.167479 0.466397 23 23 23
0.102633 0.167629 0.466284 22 22 22
0.104098 0.166351 0.462186 24 24 24
0.106481 0.166562 0.462212 24 24 24
0.109122 0.167161 0.463294 23 23 23
0.111833 0.16784 0.464579 25 25 25
0.114441 0.168341 0.465351 24 24 24
0.116466 0.167982 0.463731 26 26 26
0.118259 0.167308 0.461229 56 56 56
0.120353 0.167078 0.45994 56 56 56
0.122928 0.16751 0.46046 61 61 61
0.125759 0.168271 0.461866 41 41 41
0.128166 0.168446 0.46165 43 43 43
0.13101 0.16918 0.462948 39 39 39
0.133161 0.169009 0.461761 40 40 40
0.135423 0.168982 0.460957 37 37 37
0.138627 0.170113 0.463301 34 34 34
0.141661 0.171 0.464967 34 34 34
0.144648 0.171805 0.466399 36 36 36
0.148137 0.173169 0.46934 19 19 19
0.169732 0.195329 0.52854 33 33 33
0.172821 0.19584 0.529066 59 59 59
0.175644 0.196037 0.528749 62 62 62
0.178477 0.19624 0.528458 59 59 59
0.181812 0.19698 0.529625 55 55 55
0.184276 0.19677 0.52825 52 52 52
0.189004 0.198949 0.533308 50 50 50
0.191492 0.198741 0.531983 52 52 52
0.193551 0.198101 0.529537 54 54 54
0.195445 0.197311 0.526731 50 50 50
0.198027 0.197227 0.525851 49 49 49
0.201985 0.198498 0.528622 49 49 49
0.204989 0.198811 0.528883 46 46 46
0.20773 0.198864 0.528503 47 47 47
0.210758 0.199186 0.528891 43 43 43
0.213199 0.198953 0.52786 41 41 41
0.216099 0.199149 0.528029 43 43 43
0.218449 0.198839 0.526917 42 42 42
0.22131 0.198996 0.52711 37 37 37
0.22436 0.199317 0.527801 36 36 36
0.226448 0.198786 0.526304 38 38 38
0.229023 0.19869 0.526026 37 37 37
0.231601 0.198599 0.52583 40 40 40
0.234431 0.198724 0.526276 37 37 37
0.237199 0.198793 0.526643 31 31 31
0.239026 0.198082 0.525011 28 28 28
0.240578 0.19716 0.522886 30 30 30
