ply
format ascii 1.0
comment Generated by royaleviewer 3.23.086
element vertex 1210
property float x
property float y
property float z
property uchar red
property uchar green
property uchar blue
element face 0
property list uchar int vertex_index
end_header
-0.296452 0.00571864 0.559077 63 63 63
-0.292725 0.00570121 0.558389 75 75 75
-0.288799 0.00567952 0.557366 77 77 77
-0.287644 0.00571244 0.561781 72 72 72
-0.283587 0.00568782 0.560608 74 74 74
-0.279808 0.00566832 0.559987 82 82 82
-0.274744 0.00562213 0.556762 89 89 89
-0.271581 0.0056143 0.557358 99 99 99
-0.268204 0.00560184 0.557517 101 101 101
-0.26455 0.00558328 0.557078 105 105 105
-0.261389 0.00557482 0.557649 100 100 100
-0.25831 0.00556797 0.558379 96 96 96
-0.254674 0.00554882 0.557863 99 99 99
-0.251078 0.00553013 0.557372 109 109 109
-0.247813 0.00551842 0.557561 101 101 101
-0.244145 0.00549735 0.556773 96 96 96
-0.240893 0.00548531 0.556867 114 114 114
-0.236533 0.00544745 0.554299 119 119 119
-0.23343 0.00543799 0.554579 111 111 111
-0.23058 0.0054343 0.55541 107 107 107
-0.227859 0.00543358 0.556509 107 107 107
-0.224966 0.00542872 0.557147 113 113 113
-0.223309 0.0054539 0.560833 101 101 101
-0.21839 0.00539905 0.556246 110 110 110
-0.215318 0.00538908 0.556232 106 106 106
-0.211953 0.00537144 0.555381 103 103 103
-0.20891 0.00536161 0.555295 101 101 101
-0.206101 0.00535761 0.555772 95 95 95
-0.20309 0.00534819 0.555645 102 102 102
-0.200138 0.00534011 0.555618 101 101 101
-0.197469 0.00533944 0.556323 103 103 103
-0.194624 0.00533393 0.556485 97 97 97
-0.191906 0.00533182 0.556965 91 91 91
-0.188732 0.00531679 0.556058 91 91 91
-0.185899 0.00531107 0.556088 94 94 94
-0.182831 0.00529837 0.55535 114 114 114
-0.179573 0.00527972 0.553953 108 108 108
-0.176456 0.00526473 0.552903 108 108 108
-0.17369 0.00525993 0.552891 106 106 106
-0.17091 0.00525453 0.552784 86 86 86
-0.167121 0.00521749 0.549315 69 69 69
-0.163228 0.00517598 0.545341 62 62 62
-0.160253 0.00516272 0.544312 62 62 62
-0.156844 0.0051348 0.541707 57 57 57
-0.153715 0.00511531 0.539963 58 58 58
-0.15004 0.00507668 0.536171 56 56 56
-0.146848 0.00505332 0.533964 55 55 55
-0.144205 0.00504842 0.533684 53 53 53
-0.14156 0.00504326 0.533352 54 54 54
-0.13888 0.00503664 0.532846 56 56 56
-0.136552 0.00504278 0.533669 53 53 53
-0.133831 0.00503437 0.532932 55 55 55
-0.130738 0.00501136 0.530629 57 57 57
-0.128061 0.00500373 0.529937 53 53 53
-0.125618 0.00500514 0.530183 51 51 51
-0.122584 0.00498256 0.527873 54 54 54
-0.120287 0.00498962 0.528686 44 44 44
-0.117758 0.00498715 0.528473 36 36 36
-0.116896 0.00505669 0.535879 23 23 23
-0.111666 0.00493623 0.523134 48 48 48
-0.110527 0.0049952 0.529393 33 33 33
-0.108981 0.0050381 0.533936 14 14 14
-0.107215 0.00507258 0.537575 13 13 13
-0.104336 0.00505481 0.535665 14 14 14
-0.100404 0.0049839 0.528114 42 42 42
-0.0972309 0.00494801 0.524266 65 65 65
-0.0951953 0.00496966 0.526506 57 57 57
-0.0930153 0.00498472 0.528039 56 56 56
-0.0904536 0.00497959 0.527425 60 60 60
-0.0881268 0.00498747 0.528182 66 66 66
-0.0859417 0.00500405 0.529854 71 71 71
-0.0843675 0.00505825 0.535501 63 63 63
-0.0844976 0.00522106 0.552639 93 93 93
-0.0818629 0.00521793 0.552204 170 170 170
-0.0791852 0.00521176 0.551444 160 160 160
-0.0766633 0.00521578 0.551758 160 160 160
-0.0741712 0.00522218 0.552321 153 153 153
-0.0716364 0.00522592 0.552601 153 153 153
-0.0692658 0.00524237 0.554222 139 139 139
-0.0667515 0.00524881 0.554783 130 130 130
-0.0641929 0.00525213 0.555014 137 137 137
-0.0616499 0.00525708 0.555417 128 128 128
-0.0590205 0.00525476 0.555053 132 132 132
-0.0563786 0.00525106 0.554543 129 129 129
-0.0537308 0.00524643 0.553938 138 138 138
-0.050794 0.00521169 0.550156 140 140 140
-0.0482245 0.00521292 0.550174 144 144 144
-0.0458266 0.00523389 0.552279 149 149 149
-0.0433308 0.00524553 0.553402 134 134 134
-0.0405334 0.00521982 0.550587 140 140 140
-0.0379591 0.00522127 0.550644 137 137 137
-0.0353031 0.00521089 0.549457 126 126 126
-0.0326502 0.00519936 0.548154 98 98 98
-0.0300931 0.00520243 0.548396 85 85 85
-0.0274227 0.00518464 0.546444 75 75 75
-0.0248203 0.00517736 0.545608 75 75 75
-0.0221368 0.00514956 0.542614 76 76 76
-0.0194259 0.00510728 0.538102 74 74 74
-0.016849 0.00509288 0.536535 74 74 74
-0.0143105 0.00508703 0.535875 74 74 74
-0.011774 0.00507955 0.53505 75 75 75
-0.00920251 0.00504883 0.531785 73 73 73
-0.00668596 0.00503657 0.530471 72 72 72
-0.00418371 0.00502688 0.529436 69 69 69
-0.00168821 0.00500879 0.527521 71 71 71
0.000787845 0.0049811 0.524604 67 67 67
0.00321193 0.00491585 0.517737 69 69 69
0.00560674 0.00488137 0.514118 71 71 71
0.00800547 0.00487005 0.512945 78 78 78
0.0102305 0.00478275 0.503776 92 92 92
0.0126108 0.00478723 0.50428 105 105 105
0.0148862 0.00475678 0.501111 116 116 116
0.0172263 0.00475251 0.500706 119 119 119
0.0195897 0.00475489 0.501008 117 117 117
0.0219998 0.00476689 0.502329 118 118 118
0.0244897 0.00479219 0.505058 113 113 113
0.0269246 0.00480321 0.506287 113 113 113
0.0292865 0.00480046 0.506072 107 107 107
0.0316965 0.00480542 0.506673 117 117 117
0.0341487 0.00481565 0.507835 116 116 116
0.0365417 0.00481672 0.508036 108 108 108
0.038998 0.0048255 0.509055 105 105 105
0.0414657 0.0048346 0.51011 91 91 91
0.0447915 0.0049373 0.521048 76 76 76
0.0465988 0.00487064 0.514116 74 74 74
0.0489818 0.00486776 0.513917 82 82 82
0.0527893 0.00500006 0.527996 50 50 50
0.058333 0.0052776 0.557422 10 10 10
0.0618098 0.00535236 0.565439 1 1 1
0.0631532 0.00524382 0.554092 2 2 2
0.0631262 0.00503455 0.532095 2 2 2
0.0653812 0.00501628 0.530279 5 5 5
0.0676497 0.00500034 0.528707 9 9 9
0.0698772 0.0049826 0.526943 6 6 6
0.0727281 0.00500901 0.529846 6 6 6
0.0755845 0.00503404 0.532602 3 3 3
0.0802309 0.00517289 0.5474 1 1 1
0.0845858 0.00528493 0.559362 2 2 2
0.0867838 0.00525952 0.556775 8 8 8
0.0874069 0.00514294 0.544527 50 50 50
0.0899147 0.0051407 0.544378 106 106 106
0.0925907 0.00514794 0.545227 118 118 118
0.0951487 0.00514841 0.545353 121 121 121
0.0978456 0.00515617 0.546243 110 110 110
0.100453 0.00515893 0.546595 114 114 114
0.102958 0.00515645 0.546383 117 117 117
0.105573 0.00515947 0.546744 113 113 113
0.108143 0.00516018 0.54685 112 112 112
0.110691 0.00515983 0.546832 115 115 115
0.113231 0.00515912 0.546766 109 109 109
0.115668 0.00515386 0.546203 112 112 112
0.118151 0.00515085 0.545866 112 112 112
0.12077 0.00515379 0.546146 116 116 116
0.123069 0.00514319 0.544978 116 116 116
0.125294 0.00513002 0.54352 116 116 116
0.128446 0.00515452 0.546039 121 121 121
0.130987 0.0051541 0.5459 116 116 116
0.133116 0.00513773 0.544055 123 123 123
0.1354 0.00512787 0.54288 122 122 122
0.138377 0.00514416 0.544456 132 132 132
0.141324 0.00515873 0.545828 125 125 125
0.144088 0.00516623 0.546431 124 124 124
0.146726 0.00516905 0.546517 125 125 125
0.149046 0.00516075 0.545405 126 126 126
0.151743 0.00516556 0.545656 132 132 132
0.154381 0.00516823 0.545657 126 126 126
0.15699 0.00516986 0.545523 109 109 109
0.159632 0.0051725 0.545469 119 119 119
0.162521 0.00518295 0.546211 118 118 118
0.165508 0.00519614 0.547214 128 128 128
0.167751 0.00518593 0.545724 141 141 141
0.170864 0.00520254 0.547026 140 140 140
0.172479 0.0051737 0.543521 147 147 147
0.175318 0.00518187 0.543876 158 158 158
0.178575 0.005202 0.545451 154 154 154
0.181354 0.00520782 0.54549 149 149 149
0.184251 0.00521684 0.545832 143 143 143
0.186742 0.00521425 0.544923 149 149 149
0.189511 0.00521941 0.544789 153 153 153
0.192131 0.00522036 0.54418 147 147 147
0.194971 0.00522719 0.544146 141 141 141
0.197925 0.00523686 0.544371 153 153 153
0.20101 0.00524969 0.544882 159 159 159
0.203068 0.00523572 0.542575 150 150 150
0.205522 0.0052322 0.541316 149 149 149
0.208838 0.00525043 0.542267 145 145 145
0.212244 0.00527043 0.543357 142 142 142
0.215663 0.00529027 0.544383 137 137 137
0.218617 0.00529837 0.54416 138 138 138
0.221441 0.00530316 0.543556 138 138 138
0.224759 0.00531954 0.5441 135 135 135
0.22796 0.00533281 0.544284 137 137 137
0.230969 0.00534131 0.543944 133 133 133
0.233682 0.00534287 0.542862 134 134 134
0.236743 0.00535225 0.542543 127 127 127
0.240072 0.00536742 0.54278 118 118 118
0.243146 0.0053766 0.542382 124 124 124
0.245659 0.00537335 0.54071 128 128 128
0.24912 0.00539066 0.541092 128 128 128
0.252498 0.00540582 0.54124 131 131 131
0.255303 0.00540853 0.540137 122 122 122
0.258172 0.00541252 0.539167 114 114 114
0.261956 0.00543543 0.540088 108 108 108
0.264867 0.00543993 0.539195 102 102 102
0.268169 0.0054523 0.53911 91 91 91
0.272316 0.00548142 0.540714 85 85 85
0.275268 0.00548616 0.539956 78 78 78
0.277789 0.00548228 0.538412 75 75 75
0.281031 0.00549259 0.538332 74 74 74
0.285132 0.00551932 0.539936 71 71 71
0.289037 0.00554178 0.541205 65 65 65
0.292333 0.00555226 0.541398 58 58 58
0.29337 0.00552004 0.537538 56 56 56
-0.329669 0.00860452 0.558989 28 28 28
-0.32875 0.00865535 0.561989 30 30 30
-0.325046 0.00863311 0.560368 31 31 31
-0.322699 0.00864683 0.561208 34 34 34
-0.320499 0.00866479 0.562452 38 38 38
-0.316366 0.00863031 0.560422 40 40 40
-0.313178 0.00862125 0.56017 47 47 47
-0.310175 0.00861714 0.560365 55 55 55
-0.307365 0.00861839 0.561033 54 54 54
-0.304182 0.00860908 0.561133 49 49 49
-0.300468 0.00858443 0.560343 52 52 52
-0.296448 0.00855048 0.559046 64 64 64
-0.291985 0.00850299 0.556952 75 75 75
-0.288937 0.00849618 0.557604 73 73 73
-0.286271 0.00850058 0.559071 71 71 71
-0.283126 0.00849069 0.559665 80 80 80
-0.279527 0.00846684 0.559391 79 79 79
-0.2754 0.00842639 0.558057 86 86 86
-0.271928 0.00840532 0.558034 89 89 89
-0.268103 0.00837282 0.557271 96 96 96
-0.264544 0.00834802 0.557028 96 96 96
-0.261471 0.00833816 0.557786 90 90 90
-0.25857 0.00833369 0.558902 92 92 92
-0.255213 0.00831426 0.559006 99 99 99
-0.251498 0.00828258 0.558267 103 103 103
-0.248146 0.00826232 0.558272 97 97 97
-0.243819 0.00820877 0.555993 100 100 100
-0.240267 0.0081804 0.555382 115 115 115
-0.236704 0.008151 0.554663 112 112 112
-0.233641 0.00813834 0.555045 113 113 113
-0.230716 0.00813026 0.555704 109 109 109
-0.227776 0.00812145 0.556274 115 115 115
-0.225922 0.00815161 0.55948 107 107 107
-0.221856 0.0081017 0.557151 111 111 111
-0.21916 0.00810122 0.558175 120 120 120
-0.215034 0.00804722 0.555467 115 115 115
-0.210956 0.00799371 0.55274 115 115 115
-0.208705 0.0080089 0.554721 105 105 105
-0.205937 0.00800445 0.555303 104 104 104
-0.203101 0.00799715 0.555649 106 106 106
-0.200157 0.00798536 0.555643 97 97 97
-0.197214 0.00797331 0.555578 100 100 100
-0.194528 0.00797146 0.556187 107 107 107
-0.191873 0.00797083 0.556844 95 95 95
-0.189266 0.00797223 0.557608 94 94 94
-0.186118 0.00795057 0.556721 103 103 103
-0.182549 0.00791 0.554473 106 106 106
-0.179378 0.00788575 0.55333 106 106 106
-0.176463 0.00787223 0.552906 107 107 107
-0.173854 0.00787217 0.553395 98 98 98
-0.170947 0.00785837 0.552886 102 102 102
-0.167922 0.00783869 0.551933 92 92 92
-0.164549 0.00780184 0.549738 76 76 76
-0.16097 0.00775392 0.546732 62 62 62
-0.157654 0.00771728 0.544491 60 60 60
-0.154222 0.00767371 0.541731 59 59 59
-0.150571 0.0076176 0.538057 55 55 55
-0.147151 0.0075714 0.535055 55 55 55
-0.144314 0.00755418 0.534076 58 58 58
-0.141532 0.00753925 0.533236 53 53 53
-0.138784 0.00752564 0.532468 54 54 54
-0.135394 0.00747609 0.529134 57 57 57
-0.132875 0.00747367 0.529115 53 53 53
-0.130459 0.00747708 0.529491 52 52 52
-0.128202 0.0074899 0.530515 52 52 52
-0.125579 0.00748141 0.530012 52 52 52
-0.122777 0.0074617 0.528697 54 54 54
-0.120287 0.00746054 0.52868 49 49 49
-0.118231 0.00748683 0.530595 47 47 47
-0.11404 0.00737614 0.522786 49 49 49
-0.111436 0.00736548 0.522052 66 66 66
-0.112005 0.00756881 0.536474 35 35 35
-0.107757 0.00744847 0.527941 19 19 19
-0.10585 0.00748803 0.53073 12 12 12
-0.102996 0.00746097 0.528788 29 29 29
-0.0998451 0.00741051 0.525176 58 58 58
-0.0973758 0.00740938 0.525051 72 72 72
-0.0953078 0.00743951 0.527132 58 58 58
-0.0934076 0.00748467 0.53027 45 45 45
-0.0906571 0.00746233 0.528617 50 50 50
-0.0880015 0.00744674 0.527436 65 65 65
-0.0859544 0.00748324 0.529938 78 78 78
-0.0866373 0.00776665 0.549915 70 70 70
-0.0845126 0.00780801 0.552745 134 134 134
-0.0817034 0.00778674 0.551137 170 170 170
-0.0791528 0.00778952 0.551227 180 180 180
-0.0765342 0.00778559 0.550839 172 172 172
-0.0738699 0.00777656 0.550087 170 170 170
-0.0716877 0.00781948 0.553007 150 150 150
-0.0692051 0.00783161 0.553747 137 137 137
-0.0665966 0.00782989 0.553507 134 134 134
-0.0640607 0.00783691 0.553884 137 137 137
-0.061581 0.00785168 0.554808 130 130 130
-0.0589893 0.00785285 0.554772 125 125 125
-0.0563512 0.00784766 0.554288 130 130 130
-0.0536698 0.00783566 0.553324 143 143 143
-0.0509661 0.007819 0.552034 147 147 147
-0.0484155 0.00782533 0.552369 141 141 141
-0.0459171 0.00784127 0.553386 141 141 141
-0.0433202 0.00784129 0.553282 132 132 132
-0.0406517 0.00782753 0.55221 145 145 145
-0.0380121 0.00781784 0.55143 153 153 153
-0.0353655 0.00780517 0.550444 146 146 146
-0.032741 0.00779581 0.549697 145 145 145
-0.0301243 0.00778683 0.548982 137 137 137
-0.0276161 0.00780683 0.550315 120 120 120
-0.024925 0.00777393 0.547926 96 96 96
-0.0223366 0.00776919 0.547529 78 78 78
-0.0196919 0.00774107 0.545489 74 74 74
-0.0169737 0.00767128 0.540521 74 74 74
-0.0143926 0.00764984 0.538967 74 74 74
-0.0118127 0.00762 0.536827 77 77 77
-0.00927245 0.00760648 0.535845 73 73 73
-0.00673239 0.00758306 0.534173 71 71 71
-0.00422332 0.00758744 0.534466 71 71 71
-0.00168787 0.00748772 0.527433 70 70 70
0.000801975 0.0075814 0.53403 67 67 67
0.00326868 0.00748011 0.526901 67 67 67
0.00569843 0.00741806 0.522543 70 70 70
0.00816383 0.00742583 0.52311 69 69 69
0.0106152 0.00742015 0.522737 71 71 71
0.0129995 0.00737861 0.519843 78 78 78
0.015253 0.00728767 0.513476 84 84 84
0.0172942 0.00713401 0.502694 100 100 100
0.0195782 0.00710544 0.500731 113 113 113
0.0219243 0.00710308 0.500622 121 121 121
0.0243885 0.00713575 0.502987 119 119 119
0.0267899 0.00714591 0.50377 118 118 118
0.0291714 0.00714953 0.504099 115 115 115
0.0315398 0.00714963 0.504184 109 109 109
0.0339059 0.00714923 0.504238 107 107 107
0.0364937 0.00719258 0.507383 103 103 103
0.0389786 0.0072116 0.508817 101 101 101
0.0415487 0.00724325 0.511146 75 75 75
0.0461904 0.00761288 0.537335 79 79 79
0.0486591 0.00760466 0.536862 86 86 86
0.0492516 0.00731845 0.516761 79 79 79
0.0529265 0.00749561 0.529381 36 36 36
0.0577447 0.00781157 0.551813 4 4 4
0.0614921 0.00796179 0.562545 1 1 1
0.0635109 0.00788505 0.557243 2 2 2
0.0653736 0.00779575 0.551051 5 5 5
0.0657187 0.00753914 0.533027 6 6 6
0.0676365 0.00747514 0.528614 10 10 10
0.069872 0.00744952 0.526913 5 5 5
0.0723324 0.00744881 0.526972 4 4 4
0.0752433 0.00749301 0.530206 3 3 3
0.0809854 0.00780732 0.552556 2 2 2
0.0844694 0.00789123 0.5586 4 4 4
0.0861743 0.00780889 0.552871 19 19 19
0.087528 0.00770045 0.545288 82 82 82
0.0899191 0.00768684 0.544411 113 113 113
0.0925117 0.00769072 0.544768 113 113 113
0.0950198 0.00768756 0.544619 115 115 115
0.0974751 0.0076804 0.544179 117 117 117
0.100349 0.00770576 0.546035 115 115 115
0.102937 0.00770844 0.546274 115 115 115
0.105494 0.0077087 0.546333 110 110 110
0.108041 0.00770829 0.546334 117 117 117
0.110594 0.00770832 0.546355 116 116 116
0.113134 0.00770737 0.546295 109 109 109
0.115549 0.0076982 0.54564 115 115 115
0.117889 0.00768456 0.544655 117 117 117
0.120642 0.0076978 0.545561 115 115 115
0.123226 0.00769998 0.545669 114 114 114
0.125848 0.00770436 0.545917 112 112 112
0.128496 0.00771017 0.546251 117 117 117
0.130992 0.00770677 0.545914 118 118 118
0.133089 0.00768046 0.543938 119 119 119
0.135577 0.00767731 0.543584 128 128 128
0.138865 0.00771872 0.546366 124 124 124
0.141286 0.00771135 0.545674 121 121 121
0.143654 0.00770138 0.544778 126 126 126
0.147063 0.00774659 0.547762 116 116 116
0.14897 0.00771252 0.545118 123 123 123
0.151583 0.00771549 0.54507 127 127 127
0.154201 0.0077186 0.545008 116 116 116
0.156653 0.00771348 0.544339 115 115 115
0.159147 0.00771055 0.5438 125 125 125
0.162952 0.00777018 0.547645 130 130 130
0.165218 0.00775577 0.546241 133 133 133
0.168114 0.00777088 0.546889 145 145 145
0.169848 0.00773264 0.543753 147 147 147
0.172409 0.00773267 0.543282 152 152 152
0.175525 0.00775719 0.5445 153 153 153
0.178574 0.00777807 0.545427 152 152 152
0.181993 0.00781425 0.547391 149 149 149
0.184303 0.00780248 0.545961 142 142 142
0.186822 0.00779976 0.545132 145 145 145
0.18936 0.00779789 0.544328 150 150 150
0.192284 0.00781179 0.544589 144 144 144
0.195055 0.00781915 0.544356 145 145 145
0.197967 0.00783188 0.544458 145 145 145
0.200544 0.00783122 0.543591 153 153 153
0.202962 0.00782445 0.542264 157 157 157
0.206075 0.00784429 0.542742 148 148 148
0.209544 0.00787704 0.544069 147 147 147
0.212767 0.00789985 0.544664 131 131 131
0.215453 0.00790241 0.543823 140 140 140
0.218399 0.0079143 0.543584 137 137 137
0.221424 0.00792876 0.543481 129 129 129
0.224444 0.00794272 0.543303 139 139 139
0.227517 0.0079582 0.543191 136 136 136
0.230523 0.007971 0.542858 133 133 133
0.233101 0.00796888 0.541476 126 126 126
0.236573 0.00799701 0.542117 130 130 130
0.239601 0.0080097 0.541677 134 134 134
0.242826 0.00802861 0.541632 130 130 130
0.245646 0.00803387 0.540643 122 122 122
0.248809 0.00805012 0.540377 124 124 124
0.252876 0.00809498 0.542015 127 127 127
0.255568 0.00809531 0.540661 119 119 119
0.258391 0.00809978 0.53959 115 115 115
0.261589 0.00811577 0.539297 114 114 114
0.265451 0.00815181 0.54035 107 107 107
0.268418 0.00815993 0.539577 94 94 94
0.272605 0.0082046 0.541256 89 89 89
0.27505 0.0081965 0.539498 83 83 83
0.277186 0.00817942 0.537216 81 81 81
0.280877 0.0082081 0.53801 76 76 76
0.284927 0.00824665 0.539524 70 70 70
0.288271 0.00826422 0.539751 66 66 66
0.292055 0.00829393 0.540864 60 60 60
0.298816 0.00840689 0.547501 54 54 54
-0.336009 0.0116746 0.56975 25 25 25
-0.328587 0.0115163 0.561716 26 26 26
-0.320843 0.0113438 0.553126 30 30 30
-0.323999 0.011557 0.563469 34 34 34
-0.321559 0.0115727 0.564307 39 39 39
-0.316659 0.0114993 0.560934 42 42 42
-0.312984 0.0114695 0.55981 47 47 47
-0.309813 0.0114578 0.559696 50 50 50
-0.306686 0.0114475 0.559773 49 49 49
-0.303617 0.0114391 0.560066 54 54 54
-0.300213 0.0114179 0.559839 57 57 57
-0.29578 0.0113568 0.557754 63 63 63
-0.291867 0.0113146 0.556691 67 67 67
-0.288723 0.0113017 0.557153 69 69 69
-0.286047 0.0113071 0.558591 75 75 75
-0.282299 0.0112698 0.557985 80 80 80
-0.278765 0.0112403 0.55782 75 75 75
-0.275512 0.0112218 0.558235 84 84 84
-0.271542 0.0111733 0.557192 93 93 93
-0.267968 0.0111403 0.556938 89 89 89
-0.265173 0.0111393 0.558298 93 93 93
-0.261366 0.0110953 0.55751 93 93 93
-0.257826 0.0110619 0.557241 91 91 91
-0.254403 0.0110328 0.557177 99 99 99
-0.251352 0.0110194 0.557891 102 102 102
-0.247028 0.0109492 0.555703 98 98 98
-0.244501 0.0109581 0.557496 107 107 107
-0.240948 0.0109206 0.556905 109 109 109
-0.237635 0.0108933 0.556795 117 117 117
-0.234378 0.0108679 0.556746 113 113 113
-0.231302 0.0108505 0.557064 115 115 115
-0.227614 0.0108036 0.555829 114 114 114
-0.223968 0.0107576 0.554594 105 105 105
-0.222064 0.0107951 0.557627 111 111 111
-0.21963 0.0108075 0.55933 105 105 105
-0.216527 0.0107868 0.55928 113 113 113
-0.211585 0.010673 0.554346 115 115 115
-0.208509 0.0106515 0.554161 103 103 103
-0.205779 0.0106473 0.554835 112 112 112
-0.202944 0.0106376 0.555182 106 106 106
-0.200129 0.0106286 0.555528 102 102 102
-0.196868 0.0105955 0.554568 96 96 96
-0.194067 0.0105864 0.554833 96 96 96
-0.191468 0.0105884 0.555637 95 95 95
-0.188888 0.0105915 0.556463 100 100 100
-0.18594 0.0105736 0.556156 111 111 111
-0.182572 0.0105311 0.554513 104 104 104
-0.179138 0.0104835 0.552564 105 105 105
-0.176387 0.010475 0.552643 98 98 98
-0.17351 0.0104587 0.552274 106 106 106
-0.170957 0.0104617 0.552896 107 107 107
-0.168444 0.0104673 0.553623 96 96 96
-0.164927 0.0104097 0.55098 102 102 102
-0.161722 0.0103702 0.549265 76 76 76
-0.158564 0.0103326 0.547617 65 65 65
-0.15467 0.0102449 0.543285 61 61 61
-0.150762 0.0101534 0.53872 59 59 59
-0.147351 0.0100927 0.535767 57 57 57
-0.144444 0.0100652 0.534545 54 54 54
-0.141847 0.0100586 0.53441 53 53 53
-0.138827 0.0100212 0.53262 57 57 57
-0.136246 0.0100148 0.532456 55 55 55
-0.132801 0.00994345 0.528813 50 50 50
-0.130555 0.00996078 0.52987 51 51 51
-0.128231 0.00997284 0.530628 52 52 52
-0.125336 0.00994002 0.528981 52 52 52
-0.122871 0.00994063 0.529097 53 53 53
-0.1204 0.00994081 0.529173 56 56 56
-0.11716 0.00987616 0.525783 55 55 55
-0.115275 0.00992543 0.528443 49 49 49
-0.111765 0.0098339 0.523593 82 82 82
-0.106711 0.00959935 0.511115 175 175 175
0 0 0 0 0 0
-0.105027 0.00989059 0.526607 30 30 30
-0.102069 0.00984269 0.524033 54 54 54
-0.099646 0.00984521 0.524132 69 69 69
-0.0977009 0.00989629 0.526808 61 61 61
-0.095872 0.0099621 0.530258 47 47 47
-0.0936039 0.00998454 0.531391 37 37 37
-0.0913248 0.010007 0.532517 43 43 43
-0.0883304 0.00995017 0.529416 54 54 54
-0.088478 0.0102542 0.545506 54 54 54
-0.0866329 0.0103384 0.549898 96 96 96
-0.0842531 0.0103621 0.551059 133 133 133
-0.082005 0.010404 0.553182 147 147 147
-0.0791506 0.0103691 0.551225 159 159 159
-0.0764844 0.0103574 0.550494 167 167 167
-0.0739543 0.010364 0.55073 171 171 171
-0.0715999 0.0103965 0.552345 159 159 159
-0.0691408 0.0104158 0.553248 145 145 145
-0.0665239 0.0104118 0.552919 138 138 138
-0.0639445 0.0104136 0.552896 136 136 136
-0.0614515 0.0104302 0.55366 126 126 126
-0.058885 0.0104352 0.553809 128 128 128
-0.0562251 0.0104234 0.553067 127 127 127
-0.053649 0.0104268 0.553129 136 136 136
-0.0510484 0.0104255 0.552945 134 134 134
-0.0484153 0.010417 0.552387 137 137 137
-0.0458731 0.0104283 0.552876 136 136 136
-0.0432911 0.0104313 0.552932 136 136 136
-0.0406355 0.0104159 0.552012 145 145 145
-0.0379698 0.0103955 0.550839 158 158 158
-0.0354569 0.0104171 0.55189 153 153 153
-0.0328746 0.0104201 0.551963 137 137 137
-0.030223 0.0103998 0.550804 157 157 157
-0.0275884 0.010382 0.549788 171 171 171
-0.0250627 0.0104058 0.550978 160 160 160
-0.0224681 0.0104032 0.550776 124 124 124
-0.0198042 0.0103637 0.548625 92 92 92
-0.0171761 0.0103338 0.546994 76 76 76
-0.0145707 0.0103095 0.545662 76 76 76
-0.011908 0.0102256 0.541183 76 76 76
-0.00937291 0.0102354 0.541676 72 72 72
-0.00682027 0.0102263 0.541171 73 73 73
-0.0042607 0.0101898 0.539222 73 73 73
-0.00172604 0.010193 0.539385 70 70 70
0.000802147 0.0100945 0.53417 70 70 70
0.00329701 0.0100438 0.531494 68 68 68
0.00579976 0.0100505 0.53186 70 70 70
0.00823903 0.00997631 0.527953 68 68 68
0.0106744 0.00993281 0.525677 69 69 69
0.0130477 0.00985885 0.521796 69 69 69
0.0153941 0.00979108 0.518249 71 71 71
0.0176078 0.00966904 0.511834 74 74 74
0.0199846 0.00965507 0.511146 81 81 81
0.0222117 0.00957959 0.507207 95 95 95
0.0243996 0.00950346 0.503238 110 110 110
0.0267202 0.00948787 0.50248 122 122 122
0.0291201 0.0095007 0.503233 124 124 124
0.0314263 0.00948333 0.50239 125 125 125
0.0337517 0.00947378 0.501966 114 114 114
0.0361986 0.00949735 0.503301 109 109 109
0.0388989 0.00958045 0.507796 95 95 95
0.0436809 0.010137 0.537397 64 64 64
0.0463354 0.0101661 0.539042 105 105 105
0.0489592 0.0101857 0.540192 112 112 112
0.0513507 0.0101575 0.538804 90 90 90
0.0542879 0.0102348 0.543018 21 21 21
0.0581754 0.0104763 0.555948 2 2 2
0.0612825 0.0105626 0.560646 1 1 1
0.0631912 0.0104437 0.554455 2 2 2
0.0642474 0.0101989 0.541574 6 6 6
0.0651225 0.00994506 0.528206 8 8 8
0.0665328 0.00978853 0.520002 10 10 10
0.0696367 0.00988341 0.525153 5 5 5
0.0722313 0.00990199 0.526248 3 3 3
0.075325 0.00998553 0.530795 2 2 2
0.0794907 0.0102013 0.542369 2 2 2
0.083636 0.0104012 0.5531 8 8 8
0.0854958 0.0103134 0.548528 52 52 52
0.0875083 0.0102485 0.545174 119 119 119
0.0901281 0.0102565 0.545685 116 116 116
0.0925842 0.0102459 0.545202 115 115 115
0.0948503 0.0102154 0.543654 122 122 122
0.0974851 0.0102252 0.544241 116 116 116
0.100329 0.0102559 0.545933 111 111 111
0.103092 0.0102769 0.5471 115 115 115
0.10556 0.0102683 0.546682 117 117 117
0.107962 0.0102538 0.545937 116 116 116
0.110466 0.0102494 0.545723 112 112 112
0.11283 0.0102325 0.544828 118 118 118
0.11536 0.0102312 0.544751 117 117 117
0.117607 0.0102053 0.543352 124 124 124
0.120195 0.0102094 0.543538 121 121 121
0.123484 0.0102716 0.546806 116 116 116
0.126168 0.0102822 0.547301 119 119 119
0.128731 0.0102825 0.547241 119 119 119
0.130829 0.0102465 0.545229 123 123 123
0.133129 0.0102273 0.544093 118 118 118
0.135869 0.010242 0.544745 123 123 123
0.138833 0.0102728 0.54623 122 122 122
0.141311 0.0102672 0.54576 125 125 125
0.143385 0.0102329 0.543744 126 126 126
0.14591 0.0102315 0.543456 121 121 121
0.148902 0.0102622 0.544851 117 117 117
0.15144 0.0102612 0.54454 116 116 116
0.15426 0.010279 0.5452 105 105 105
0.156763 0.0102754 0.544702 122 122 122
0.160897 0.0103771 0.549758 120 120 120
0.163016 0.0103477 0.54784 133 133 133
0.165449 0.0103389 0.546983 143 143 143
0.167904 0.0103317 0.546184 143 143 143
0.169908 0.0102973 0.543921 149 149 149
0.172554 0.0103024 0.543712 154 154 154
0.175372 0.0103174 0.543998 154 154 154
0.178745 0.0103641 0.545921 149 149 149
0.1816 0.0103799 0.54618 151 151 151
0.184346 0.0103891 0.54606 142 142 142
0.187426 0.0104166 0.546864 139 139 139
0.189281 0.0103763 0.54407 136 136 136
0.19199 0.0103832 0.543722 135 135 135
0.195187 0.0104159 0.544687 139 139 139
0.197969 0.0104259 0.544428 137 137 137
0.200541 0.0104248 0.543546 143 143 143
0.203328 0.0104347 0.543203 148 148 148
0.206634 0.0104707 0.544174 155 155 155
0.209634 0.0104904 0.544261 147 147 147
0.212174 0.010487 0.543104 147 147 147
0.215102 0.0105025 0.542892 141 141 141
0.218163 0.0105242 0.542952 135 135 135
0.221407 0.010554 0.543395 136 136 136
0.224355 0.0105691 0.543039 133 133 133
0.227344 0.0105859 0.542729 137 137 137
0.230379 0.0106044 0.542469 124 124 124
0.234197 0.0106581 0.543972 121 121 121
0.236196 0.0106287 0.541204 137 137 137
0.239523 0.0106591 0.541451 131 131 131
0.242751 0.0106844 0.541415 126 126 126
0.245822 0.0107024 0.540981 125 125 125
0.24904 0.0107263 0.540828 125 125 125
0.252209 0.0107476 0.540534 124 124 124
0.255672 0.0107809 0.540831 117 117 117
0.258227 0.0107756 0.539197 115 115 115
0.261159 0.0107859 0.53836 106 106 106
0.264922 0.0108301 0.539226 103 103 103
0.269452 0.0109043 0.54161 98 98 98
0.272185 0.0109052 0.540379 92 92 92
0.274378 0.0108845 0.538138 86 86 86
0.277331 0.0108941 0.537459 82 82 82
0.280723 0.0109206 0.53768 81 81 81
0.285442 0.0109978 0.540467 74 74 74
0.288111 0.0109952 0.539421 65 65 65
0.291447 0.0110179 0.539713 60 60 60
0.296857 0.0111179 0.543889 53 53 53
-0.330459 0.0143384 0.560353 23 23 23
-0.330596 0.0144695 0.565162 26 26 26
-0.324957 0.0143478 0.560223 31 31 31
-0.322956 0.014386 0.561655 33 33 33
-0.3207 0.0144134 0.562794 37 37 37
-0.316882 0.0143704 0.561317 44 44 44
-0.313011 0.0143243 0.559841 45 45 45
-0.309874 0.0143113 0.559784 48 48 48
-0.306685 0.0142955 0.559743 53 53 53
-0.303642 0.0142864 0.56008 54 54 54
-0.300267 0.0142612 0.559903 59 59 59
-0.296066 0.014196 0.558253 63 63 63
-0.291828 0.0141278 0.556572 64 64 64
-0.289518 0.0141525 0.558637 71 71 71
-0.285893 0.0141127 0.558237 78 78 78
-0.282332 0.0140753 0.557994 74 74 74
-0.278786 0.014038 0.557802 82 82 82
-0.275099 0.0139927 0.557335 93 93 93
-0.271515 0.0139518 0.557073 93 93 93
-0.268759 0.013953 0.558516 91 91 91
-0.264859 0.0138942 0.557571 99 99 99
-0.261501 0.013863 0.55773 85 85 85
-0.257557 0.0137997 0.556592 87 87 87
-0.253998 0.0137558 0.556223 97 97 97
-0.250688 0.0137247 0.556349 105 105 105
-0.247658 0.0137083 0.557052 101 101 101
-0.244503 0.0136846 0.557434 109 109 109
-0.241267 0.0136557 0.557574 114 114 114
-0.237744 0.0136098 0.556983 121 121 121
-0.234748 0.0135933 0.557561 123 123 123
-0.231231 0.0135459 0.556833 118 118 118
-0.227017 0.0134561 0.554311 117 117 117
-0.223642 0.0134145 0.553727 117 117 117
-0.221374 0.013439 0.555836 103 103 103
-0.219321 0.0134774 0.558485 99 99 99
-0.216807 0.013488 0.559947 107 107 107
-0.213243 0.0134328 0.558636 116 116 116
-0.209202 0.0133458 0.55595 114 114 114
-0.205739 0.0132938 0.554679 109 109 109
-0.202937 0.0132837 0.555113 110 110 110
-0.199958 0.0132617 0.555007 107 107 107
-0.197029 0.0132424 0.554975 90 90 90
-0.193569 0.0131865 0.553368 93 93 93
-0.190727 0.0131716 0.553444 95 95 95
-0.188338 0.0131881 0.554802 102 102 102
-0.186057 0.0132127 0.556468 106 106 106
-0.183226 0.0131984 0.556463 100 100 100
-0.179693 0.0131323 0.554239 100 100 100
-0.176411 0.0130829 0.552682 104 104 104
-0.173329 0.0130472 0.551666 115 115 115
-0.170885 0.013059 0.552631 114 114 114
-0.168552 0.0130799 0.553949 99 99 99
-0.165935 0.0130791 0.55432 101 101 101
-0.162266 0.0129939 0.551087 98 98 98
-0.159438 0.0129745 0.550611 96 96 96
-0.156248 0.0129244 0.548807 69 69 69
-0.152444 0.012821 0.544711 60 60 60
-0.147599 0.0126251 0.536653 58 58 58
-0.145208 0.0126358 0.537352 57 57 57
-0.142255 0.0125973 0.535932 54 54 54
-0.139403 0.0125664 0.534816 52 52 52
-0.135878 0.0124727 0.531001 57 57 57
-0.132981 0.0124342 0.529518 53 53 53
-0.130662 0.0124493 0.530297 53 53 53
-0.128289 0.0124597 0.530859 50 50 50
-0.125453 0.0124246 0.529465 51 51 51
-0.123004 0.0124273 0.529664 51 51 51
-0.120433 0.0124175 0.529313 57 57 57
-0.117797 0.0124004 0.52864 56 56 56
-0.114898 0.0123544 0.526713 54 54 54
-0.112564 0.0123684 0.527337 61 61 61
-0.109788 0.0123333 0.525851 69 69 69
-0.107509 0.0123539 0.526728 72 72 72
-0.103706 0.012196 0.519984 65 65 65
-0.101583 0.012233 0.521538 66 66 66
-0.0997814 0.0123114 0.524849 52 52 52
-0.0977715 0.0123674 0.527194 39 39 39
-0.0954671 0.0123881 0.528025 37 37 37
-0.0931849 0.0124129 0.52902 36 36 36
-0.0910808 0.0124634 0.531103 37 37 37
-0.0910125 0.012803 0.545501 43 43 43
-0.0890109 0.0128825 0.548804 63 63 63
-0.0866649 0.0129154 0.550113 90 90 90
-0.0843316 0.0129522 0.551586 126 126 126
-0.0819809 0.0129886 0.553035 137 137 137
-0.079394 0.0129888 0.552935 152 152 152
-0.0766107 0.0129557 0.551419 170 170 170
-0.0740652 0.012962 0.551573 168 168 168
-0.0715736 0.0129784 0.55216 161 161 161
-0.0690417 0.0129885 0.552475 151 151 151
-0.0664873 0.012995 0.552635 137 137 137
-0.0639915 0.013014 0.553324 138 138 138
-0.0614277 0.0130201 0.553467 135 135 135
-0.0588115 0.0130152 0.553142 130 130 130
-0.0562424 0.0130208 0.553261 126 126 126
-0.0536992 0.0130331 0.553671 132 132 132
-0.0509948 0.0130057 0.552391 144 144 144
-0.0481976 0.0129503 0.549929 151 151 151
-0.0457345 0.0129835 0.551233 140 140 140
-0.0432374 0.0130104 0.552274 148 148 148
-0.0406017 0.0129965 0.55158 146 146 146
-0.03802 0.0129991 0.551596 145 145 145
-0.0354772 0.0130163 0.552235 147 147 147
-0.032931 0.0130349 0.552939 135 135 135
-0.0302386 0.0129939 0.551118 146 146 146
-0.0276212 0.0129805 0.550474 159 159 159
-0.0250644 0.0129957 0.551048 173 173 173
-0.0224843 0.0130009 0.551204 136 136 136
-0.0198346 0.012962 0.549498 128 128 128
-0.0172229 0.01294 0.548517 121 121 121
-0.0146305 0.0129274 0.547935 98 98 98
-0.0120389 0.0129101 0.547166 80 80 80
-0.0094202 0.0128465 0.544441 72 72 72
-0.00687523 0.0128735 0.545564 73 73 73
-0.00430358 0.0128531 0.544682 73 73 73
-0.00173615 0.0128036 0.542576 73 73 73
0.000810226 0.012733 0.539583 69 69 69
0.00332582 0.0126523 0.536171 70 70 70
0.00581961 0.012594 0.533713 67 67 67
0.0083042 0.012557 0.532161 70 70 70
0.0107397 0.01248 0.528925 70 70 70
0.0131535 0.0124115 0.526056 68 68 68
0.0155478 0.0123492 0.523455 70 70 70
0.0179381 0.0123012 0.521467 69 69 69
0.0200898 0.0121208 0.513869 73 73 73
0.022462 0.0120978 0.512952 75 75 75
0.0247791 0.0120525 0.511093 80 80 80
0.02721 0.0120656 0.51172 86 86 86
0.0289501 0.0117952 0.500322 100 100 100
0.0313925 0.01183 0.501877 112 112 112
0.0337952 0.0118461 0.502639 100 100 100
0.0362508 0.0118774 0.504053 84 84 84
0.0404528 0.012442 0.528108 66 66 66
0.043725 0.0126719 0.537967 104 104 104
0.0466416 0.0127793 0.54263 109 109 109
0.0491463 0.0127686 0.542282 109 109 109
0.0518132 0.012799 0.543682 67 67 67
0.0561806 0.0132268 0.561974 8 8 8
0.05923 0.01332 0.56605 2 2 2
0.0606519 0.0130548 0.5549 2 2 2
0.0612876 0.0126492 0.537774 3 3 3
0.0620277 0.0122964 0.522883 7 7 7
0.0638662 0.0121798 0.518036 10 10 10
0.0666352 0.0122427 0.52082 9 9 9
0.0706236 0.0125173 0.532612 4 4 4
0.0735877 0.0125978 0.536147 2 2 2
0.0757656 0.0125428 0.533914 3 3 3
0.0801899 0.0128514 0.547155 4 4 4
0.0829216 0.012878 0.548389 22 22 22
0.0850358 0.01281 0.545591 90 90 90
0.0876169 0.0128143 0.545863 123 123 123
0.0901758 0.0128151 0.545985 114 114 114
0.0927278 0.0128149 0.546058 107 107 107
0.0950581 0.012785 0.544853 116 116 116
0.0974413 0.0127635 0.544003 114 114 114
0.100127 0.0127817 0.544835 112 112 112
0.10308 0.0128323 0.547043 120 120 120
0.105744 0.0128454 0.547637 116 116 116
0.108053 0.0128157 0.546398 114 114 114
0.11032 0.0127825 0.545 111 111 111
0.112701 0.0127638 0.544209 114 114 114
0.115148 0.0127532 0.543748 127 127 127
0.117611 0.0127447 0.543367 118 118 118
0.120221 0.0127522 0.543651 119 119 119
0.123226 0.0128005 0.54566 119 119 119
0.126381 0.012862 0.54822 116 116 116
0.128548 0.0128225 0.546456 123 123 123
0.13084 0.0127968 0.545262 123 123 123
0.133073 0.0127665 0.543854 120 120 120
0.135663 0.0127709 0.54391 123 123 123
0.13841 0.0127897 0.544556 127 127 127
0.141191 0.0128107 0.545281 123 123 123
0.143441 0.0127838 0.54394 124 124 124
0.146044 0.0127887 0.543937 124 124 124
0.14854 0.0127842 0.543507 116 116 116
0.151414 0.0128119 0.544426 112 112 112
0.154301 0.0128397 0.545321 118 118 118
0.157288 0.0128748 0.546502 125 125 125
0.160161 0.0128997 0.547219 132 132 132
0.16287 0.0129107 0.547323 137 137 137
0.165405 0.0129078 0.546807 141 141 141
0.167926 0.0129039 0.546225 140 140 140
0.170506 0.0129046 0.545806 148 148 148
0.172948 0.0128949 0.544921 154 154 154
0.175857 0.0129199 0.545467 156 156 156
0.178856 0.0129507 0.546224 149 149 149
0.18169 0.0129688 0.546412 147 147 147
0.184654 0.0129956 0.546931 138 138 138
0.187152 0.0129893 0.546023 136 136 136
0.190349 0.0130309 0.547095 136 136 136
0.191688 0.0129461 0.542822 132 132 132
0.194934 0.0129905 0.543936 128 128 128
0.19783 0.0130108 0.543998 126 126 126
0.200577 0.0130208 0.543594 137 137 137
0.203364 0.0130331 0.543248 143 143 143
0.20632 0.0130559 0.543296 145 145 145
0.208664 0.0130398 0.541688 143 143 143
0.211518 0.0130556 0.541369 149 149 149
0.214496 0.0130786 0.541307 144 144 144
0.21843 0.0131587 0.543559 138 138 138
0.221488 0.0131846 0.543533 140 140 140
0.224386 0.0132006 0.543054 133 133 133
0.22723 0.013213 0.542395 130 130 130
0.231139 0.0132864 0.544196 116 116 116
0.233883 0.0132919 0.543177 128 128 128
0.236926 0.0133141 0.542811 138 138 138
0.239027 0.0132835 0.540265 130 130 130
0.242207 0.0133128 0.540135 129 129 129
0.245472 0.0133461 0.540144 123 123 123
0.248986 0.0133921 0.540646 118 118 118
0.251597 0.013389 0.539156 120 120 120
0.253842 0.0133668 0.536895 116 116 116
0.257348 0.0134107 0.537297 113 113 113
0.26074 0.0134479 0.537435 105 105 105
0.264264 0.013491 0.537826 98 98 98
0.268943 0.0135916 0.540529 93 93 93
0.272157 0.0136169 0.540267 94 94 94
0.274647 0.0136059 0.538613 85 85 85
0.277687 0.0136221 0.5381 84 84 84
0.280664 0.0136348 0.537522 79 79 79
0.284151 0.0136719 0.537981 75 75 75
0.287844 0.0137181 0.538885 68 68 68
0.291144 0.0137449 0.53912 61 61 61
0.296192 0.0138529 0.542643 51 51 51
-0.334036 0.0173812 0.566437 23 23 23
-0.328975 0.0172671 0.562403 31 31 31
-0.326646 0.0172957 0.563139 33 33 33
-0.322711 0.017239 0.561228 35 35 35
-0.320183 0.0172571 0.561881 39 39 39
-0.31676 0.0172269 0.561088 44 44 44
-0.313648 0.0172131 0.560962 43 43 43
-0.30996 0.0171673 0.559913 53 53 53
-0.30633 0.0171238 0.559064 54 54 54
-0.303414 0.0171197 0.55962 54 54 54
-0.300421 0.0171113 0.560145 58 58 58
-0.29673 0.0170625 0.559454 65 65 65
-0.291763 0.0169387 0.556392 67 67 67
-0.288891 0.0169353 0.557366 73 73 73
-0.286252 0.0169457 0.558873 77 77 77
-0.282496 0.0168894 0.558249 75 75 75
-0.279087 0.0168529 0.558331 89 89 89
-0.275145 0.0167833 0.557354 93 93 93
-0.271371 0.0167226 0.5567 80 80 80
-0.268722 0.0167306 0.558359 89 89 89
-0.264316 0.0166282 0.556346 100 100 100
-0.260624 0.0165692 0.555778 94 94 94
-0.257182 0.0165248 0.555697 92 92 92
-0.254245 0.0165124 0.556681 97 97 97
-0.250758 0.0164636 0.55642 106 106 106
-0.247615 0.0164365 0.556874 110 110 110
-0.244786 0.0164299 0.557995 108 108 108
-0.241054 0.0163619 0.557003 113 113 113
-0.237287 0.0162899 0.555834 117 117 117
-0.234075 0.0162548 0.555884 119 119 119
-0.231397 0.0162564 0.557155 109 109 109
-0.227615 0.0161795 0.555695 113 113 113
-0.224218 0.0161285 0.555079 110 110 110
-0.221418 0.0161197 0.555875 95 95 95
-0.218788 0.0161232 0.557055 95 95 95
-0.215454 0.0160743 0.556386 109 109 109
-0.212458 0.0160497 0.556512 118 118 118
-0.208981 0.0159877 0.555298 112 112 112
-0.205779 0.0159454 0.554722 107 107 107
-0.202673 0.0159095 0.554331 109 109 109
-0.200156 0.0159195 0.555497 102 102 102
-0.197245 0.0158981 0.555528 96 96 96
-0.194207 0.0158657 0.555136 109 109 109
-0.190724 0.0157956 0.553384 108 108 108
-0.188236 0.0158069 0.554449 98 98 98
-0.185911 0.0158326 0.555984 101 101 101
-0.183415 0.0158442 0.556989 102 102 102
-0.180306 0.0158024 0.556086 98 98 98
-0.176883 0.0157314 0.554119 104 104 104
-0.173702 0.0156802 0.552811 120 120 120
-0.171046 0.0156756 0.553116 103 103 103
-0.168358 0.0156678 0.553276 105 105 105
-0.165768 0.015669 0.553729 111 111 111
-0.163447 0.0156961 0.555067 108 108 108
-0.159617 0.0155767 0.551196 96 96 96
-0.156537 0.015528 0.549793 95 95 95
-0.153479 0.0154797 0.548381 71 71 71
-0.149667 0.0153525 0.544147 59 59 59
-0.14572 0.0152068 0.539226 56 56 56
-0.143312 0.0152194 0.539895 57 57 57
-0.139368 0.0150663 0.534664 58 58 58
-0.135604 0.0149275 0.529914 55 55 55
-0.132937 0.0149064 0.529325 53 53 53
-0.130408 0.0149005 0.529252 55 55 55
-0.128256 0.0149382 0.530711 53 53 53
-0.126204 0.0149893 0.532627 52 52 52
-0.123293 0.0149382 0.530898 53 53 53
-0.120627 0.0149154 0.530159 54 54 54
-0.117598 0.0148459 0.527742 57 57 57
-0.114833 0.0148074 0.526415 62 62 62
-0.112183 0.0147823 0.525547 72 72 72
-0.10977 0.0147881 0.525768 70 70 70
-0.107426 0.0148037 0.526321 77 77 77
-0.104638 0.0147573 0.524663 66 66 66
-0.102018 0.014733 0.523777 53 53 53
-0.100005 0.0147972 0.526028 39 39 39
-0.0976847 0.0148182 0.526732 32 32 32
-0.0946644 0.0147313 0.523593 40 40 40
-0.0920764 0.0147088 0.522736 42 42 42
-0.0905405 0.0148578 0.527963 34 34 34
-0.0910604 0.0153619 0.545801 43 43 43
-0.0889212 0.0154335 0.548264 72 72 72
-0.0866154 0.0154797 0.549814 79 79 79
-0.0844291 0.0155507 0.55224 86 86 86
-0.0819601 0.0155724 0.552913 106 106 106
-0.0795184 0.0156009 0.553821 127 127 127
-0.0771492 0.0156461 0.555315 151 151 151
-0.0739661 0.0155236 0.550857 164 164 164
-0.0714251 0.0155318 0.551038 161 161 161
-0.0689212 0.0155491 0.551535 163 163 163
-0.0664141 0.0155669 0.552052 159 159 159
-0.0639384 0.0155939 0.552891 145 145 145
-0.0613921 0.0156051 0.553174 130 130 130
-0.058781 0.0156002 0.552883 129 129 129
-0.0562576 0.0156191 0.55344 123 123 123
-0.0536108 0.015604 0.55279 135 135 135
-0.0507274 0.015515 0.549525 145 145 145
-0.0480885 0.0154952 0.548716 152 152 152
-0.0455877 0.0155202 0.549496 151 151 151
-0.0431904 0.0155856 0.551707 138 138 138
-0.0406184 0.0155922 0.551842 134 134 134
-0.0379817 0.0155732 0.551074 138 138 138
-0.0355402 0.0156373 0.553252 142 142 142
-0.0329306 0.0156317 0.552969 135 135 135
-0.0303071 0.015618 0.552404 152 152 152
-0.0276519 0.0155839 0.551121 151 151 151
-0.0250568 0.0155801 0.550918 146 146 146
-0.0224607 0.0155747 0.550665 143 143 143
-0.0198268 0.0155384 0.549322 136 136 136
-0.0172159 0.0155117 0.54833 135 135 135
-0.0146522 0.0155258 0.548785 119 119 119
-0.0120653 0.0155161 0.548403 126 126 126
-0.00950805 0.0155496 0.549558 104 104 104
-0.00693513 0.0155728 0.550357 81 81 81
-0.00430986 0.0154363 0.545516 75 75 75
-0.00174244 0.0154101 0.544583 70 70 70
0.000814496 0.0153503 0.542466 69 69 69
0.0033486 0.015277 0.539882 70 70 70
0.00584155 0.0151601 0.535764 67 67 67
0.00832801 0.0151018 0.533725 69 69 69
0.0107952 0.0150437 0.531696 68 68 68
0.0132402 0.0149824 0.529563 69 69 69
0.0156055 0.0148645 0.525436 70 70 70
0.0180582 0.0148507 0.524994 70 70 70
0.0205357 0.0148582 0.525311 71 71 71
0.0226782 0.0146476 0.517924 72 72 72
0.0250438 0.0146081 0.516589 69 69 69
0.0275187 0.0146336 0.51756 69 69 69
0.0298174 0.0145689 0.515345 70 70 70
0.0321767 0.0145413 0.514448 66 66 66
0.0349543 0.0146934 0.519912 57 57 57
0 0 0 0 0 0
0.0417209 0.0153885 0.544696 69 69 69
0.0442265 0.0153708 0.54417 116 116 116
0.0468599 0.0153971 0.545202 127 127 127
0.0494866 0.0154185 0.546068 107 107 107
0.0534784 0.0158422 0.561186 33 33 33
0.0566044 0.0159817 0.566244 6 6 6
0.0582601 0.0157122 0.55681 1 1 1
0.0582936 0.015047 0.533351 4 4 4
0.0592871 0.0146742 0.520245 5 5 5
0.0616324 0.0146522 0.519574 10 10 10
0.0644347 0.0147364 0.52267 10 10 10
0.069708 0.0153589 0.54486 6 6 6
0.0728949 0.0154939 0.549764 2 2 2
0.0755537 0.0155113 0.550492 3 3 3
0.0790119 0.0156863 0.556811 3 3 3
0.0815612 0.0156754 0.55653 8 8 8
0.082698 0.0154021 0.546928 60 60 60
0.0851309 0.0153793 0.546216 110 110 110
0.0875428 0.0153542 0.545415 123 123 123
0.0902413 0.0153794 0.546394 119 119 119
0.0928533 0.0153888 0.546808 111 111 111
0.0953782 0.0153837 0.546699 127 127 127
0.0976661 0.0153417 0.545267 122 122 122
0.100089 0.0153225 0.544639 122 122 122
0.102832 0.0153518 0.54573 122 122 122
0.105768 0.015408 0.547763 119 119 119
0.108156 0.0153836 0.546922 111 111 111
0.110341 0.0153322 0.545109 114 114 114
0.112729 0.0153105 0.544342 115 115 115
0.115306 0.015315 0.544493 121 121 121
0.117876 0.0153183 0.544588 122 122 122
0.120348 0.015309 0.544223 118 118 118
0.122966 0.0153183 0.544502 115 115 115
0.125731 0.0153451 0.545389 123 123 123
0.128182 0.0153334 0.544891 123 123 123
0.130706 0.0153307 0.544696 124 124 124
0.133205 0.0153252 0.544381 115 115 115
0.135538 0.0153011 0.543391 124 124 124
0.13811 0.0153044 0.543355 130 130 130
0.140774 0.0153177 0.543654 132 132 132
0.143697 0.0153581 0.544891 136 136 136
0.146052 0.0153374 0.543942 127 127 127
0.148482 0.0153253 0.543274 116 116 116
0.150798 0.015302 0.542185 136 136 136
0.154022 0.01537 0.544309 141 141 141
0.157314 0.0154424 0.546563 134 134 134
0.16011 0.0154648 0.547014 136 136 136
0.162729 0.0154695 0.546816 131 131 131
0.165186 0.0154589 0.54605 143 143 143
0.167886 0.015471 0.546056 141 141 141
0.170491 0.0154742 0.545718 146 146 146
0.173224 0.0154887 0.54575 152 152 152
0.176109 0.0155162 0.546207 146 146 146
0.178737 0.0155206 0.545817 142 142 142
0.181689 0.0155525 0.546365 143 143 143
0.184449 0.0155674 0.546277 140 140 140
0.187256 0.0155858 0.546276 143 143 143
0.18918 0.0155311 0.543683 142 142 142
0.19169 0.0155254 0.542772 122 122 122
0.194365 0.0155331 0.542292 122 122 122
0.19759 0.0155839 0.543279 138 138 138
0.200421 0.0156027 0.54311 140 140 140
0.203545 0.0156436 0.543669 138 138 138
0.205873 0.0156231 0.542054 140 140 140
0.208425 0.0156198 0.541002 140 140 140
0.211239 0.015636 0.540587 139 139 139
0.214711 0.0157 0.54178 132 132 132
0.21799 0.0157484 0.542391 141 141 141
0.221474 0.0158104 0.543426 139 139 139
0.224274 0.0158226 0.54271 139 139 139
0.226843 0.0158184 0.541394 117 117 117
0.22983 0.0158432 0.541036 123 123 123
0.23362 0.0159221 0.542487 129 129 129
0.236435 0.0159335 0.541605 133 133 133
0.23931 0.0159488 0.540824 124 124 124
0.24225 0.0159679 0.54015 125 125 125
0.24592 0.0160342 0.541049 123 123 123
0.248732 0.0160438 0.540014 113 113 113
0.251439 0.0160465 0.538738 113 113 113
0.253965 0.0160376 0.537077 109 109 109
0.257295 0.0160792 0.537109 106 106 106
0.260903 0.0161372 0.537695 98 98 98
0.264391 0.0161866 0.53801 99 99 99
0.268984 0.016302 0.54054 90 90 90
0.271878 0.0163131 0.539644 89 89 89
0.275044 0.0163402 0.539327 81 81 81
0.277506 0.0163253 0.537688 78 78 78
0.280651 0.0163506 0.537442 71 71 71
0.284317 0.0164053 0.538245 73 73 73
0.287516 0.0164324 0.538225 64 64 64
0.290542 0.0164492 0.537966 60 60 60
0.29483 0.0165364 0.540113 52 52 52
-0.330707 0.0200668 0.560814 24 24 24
-0.329758 0.0201836 0.563755 30 30 30
-0.325954 0.0201263 0.561955 31 31 31
-0.32367 0.0201627 0.562897 35 35 35
-0.320296 0.0201312 0.562073 39 39 39
-0.317856 0.0201583 0.563014 41 41 41
-0.313149 0.0200409 0.560047 43 43 43
-0.308053 0.0198961 0.556439 53 53 53
-0.305493 0.019914 0.557498 55 55 55
-0.30278 0.0199221 0.558405 61 61 61
-0.299756 0.0199098 0.558853 58 58 58
-0.297425 0.0199437 0.560704 59 59 59
-0.293023 0.019838 0.558728 65 65 65
-0.288458 0.0197192 0.556459 75 75 75
-0.285679 0.0197213 0.557676 74 74 74
-0.282876 0.0197217 0.558917 81 81 81
-0.278687 0.0196246 0.557446 88 88 88
-0.275033 0.0195635 0.557037 87 87 87
-0.27133 0.0194977 0.556523 87 87 87
-0.267521 0.0194228 0.555769 94 94 94
-0.263178 0.0193073 0.553857 96 96 96
-0.260119 0.0192844 0.554604 94 94 94
-0.257081 0.0192626 0.555382 101 101 101
-0.253828 0.0192241 0.55567 107 107 107
-0.250322 0.0191654 0.555356 106 106 106
-0.247519 0.0191597 0.556559 105 105 105
-0.244762 0.0191575 0.557844 112 112 112
-0.241662 0.0191282 0.55831 110 110 110
-0.236425 0.0189271 0.55372 119 119 119
-0.234008 0.0189498 0.555633 110 110 110
-0.23094 0.0189196 0.555963 112 112 112
-0.227837 0.0188858 0.556147 111 111 111
-0.224496 0.0188312 0.55568 105 105 105
-0.221507 0.0188053 0.556014 92 92 92
-0.218388 0.0187675 0.555956 93 93 93
-0.215304 0.0187318 0.555918 107 107 107
-0.21205 0.0186801 0.555365 114 114 114
-0.208908 0.0186372 0.555027 111 111 111
-0.205834 0.0185994 0.554799 104 104 104
-0.203103 0.018592 0.555435 102 102 102
-0.200258 0.0185737 0.55571 97 97 97
-0.197881 0.018599 0.557251 104 104 104
-0.194668 0.0185454 0.556389 110 110 110
-0.191605 0.0185047 0.555876 114 114 114
-0.188408 0.0184499 0.554898 106 106 106
-0.184793 0.0183519 0.552584 118 118 118
-0.182503 0.0183845 0.554166 109 109 109
-0.18006 0.0184026 0.555276 95 95 95
-0.17714 0.0183716 0.554875 107 107 107
-0.174408 0.0183596 0.555013 108 108 108
-0.171367 0.0183141 0.554108 101 101 101
-0.16851 0.0182871 0.553732 107 107 107
-0.165613 0.018255 0.553168 100 100 100
-0.163073 0.0182618 0.553757 96 96 96
-0.160098 0.0182193 0.552821 98 98 98
-0.157079 0.0181704 0.551665 95 95 95
-0.153759 0.0180843 0.54935 96 96 96
-0.150282 0.0179766 0.546353 80 80 80
-0.147183 0.0179111 0.544613 65 65 65
-0.143912 0.017822 0.542129 58 58 58
-0.139469 0.017582 0.535029 62 62 62
-0.136228 0.0174875 0.532332 59 59 59
-0.133065 0.0173996 0.529817 56 56 56
-0.131228 0.0174852 0.532563 52 52 52
-0.128609 0.0174679 0.532157 52 52 52
-0.12574 0.0174151 0.530653 54 54 54
-0.123223 0.0174101 0.530589 54 54 54
-0.120226 0.0173355 0.528389 58 58 58
-0.117217 0.0172561 0.526024 62 62 62
-0.114342 0.0171935 0.524157 65 65 65
-0.111696 0.0171633 0.523266 77 77 77
-0.109613 0.0172202 0.525013 77 77 77
-0.107442 0.0172655 0.526398 68 68 68
-0.105175 0.0172973 0.527357 53 53 53
-0.102595 0.0172778 0.526744 47 47 47
-0.100271 0.0173015 0.527436 38 38 38
-0.0884111 0.0156395 0.476734 65 65 65
-0.0850458 0.0154331 0.4704 78 78 78
-0.0833059 0.0155186 0.472954 66 66 66
-0.083025 0.0158879 0.48415 43 43 43
-0.0893878 0.0175849 0.53579 47 47 47
-0.0885757 0.0179276 0.54615 67 67 67
-0.0862969 0.017985 0.54781 76 76 76
-0.0840997 0.0180634 0.550105 79 79 79
-0.0821412 0.0181996 0.554155 82 82 82
-0.0797743 0.0182513 0.555626 100 100 100
-0.0764258 0.0180743 0.550132 136 136 136
-0.0738061 0.0180634 0.549691 148 148 148
-0.0711974 0.0180544 0.549307 162 162 162
-0.0687499 0.0180872 0.550192 170 170 170
-0.0662267 0.0181018 0.550523 164 164 164
-0.0637937 0.0181433 0.55167 144 144 144
-0.0613163 0.0181751 0.552522 138 138 138
-0.0587577 0.0181846 0.552697 142 142 142
-0.0561083 0.0181656 0.552005 141 141 141
-0.0535401 0.0181723 0.552096 144 144 144
-0.0508887 0.0181501 0.551309 140 140 140
-0.0480804 0.0180664 0.548662 155 155 155
-0.0457553 0.0181652 0.551555 144 144 144
-0.043182 0.0181713 0.551639 142 142 142
-0.0406094 0.0181785 0.55176 141 141 141
